ply 
format ascii 1.0 
element vertex 1305
property float x 
property float y 
property float z 
property uchar red 
property uchar green 
property uchar blue 
end_header 
-1.192955 0.7640285 1.804 130 100 23
-1.199772 0.7749605 1.832 78 61 13
-1.21149 0.7892737 1.868 51 51 17
-1.190708 0.7824783 1.854 40 33 13
-1.186066 0.7862633 1.865 33 25 9
-1.183868 0.7917499 1.88 30 23 12
-1.169074 0.7888353 1.875 28 20 11
-1.169835 0.7964581 1.895 26 17 6
-1.141069 0.7839346 1.867 149 121 52
-1.109072 0.7689405 1.833 141 114 29
-1.09551 0.7665691 1.829 144 117 34
-1.087383 0.7679917 1.834 142 115 32
-1.073376 0.7652484 1.829 144 118 30
-1.047276 0.7537504 1.803 165 142 40
-1.037055 0.7535687 1.804 206 187 79
-1.030846 0.7563276 1.812 151 137 34
-1.049916 0.7778697 1.865 175 170 61
-1.146384 0.8577487 2.058 207 205 111
-1.161802 0.877975 2.108 199 203 107
-1.15977 0.8852906 2.127 206 209 113
-1.159176 0.8938636 2.149 182 170 59
-1.163701 0.9066014 2.181 182 176 55
-1.153644 0.9081258 2.186 174 171 52
-1.150874 0.9154791 2.205 182 176 63
-1.155148 0.9286513 2.238 177 172 54
-1.147848 0.9327028 2.249 172 167 46
-1.140962 0.9371819 2.261 167 160 43
-1.136467 0.9437449 2.278 172 166 47
-1.14266 0.9594279 2.317 177 172 54
-1.135279 0.9639373 2.329 169 166 48
-1.137909 0.9771466 2.362 171 163 51
-1.132101 0.9833302 2.378 168 159 52
-1.125201 0.9886978 2.392 171 165 52
-1.127001 1.001926 2.425 166 160 47
-1.122488 1.00979 2.445 162 161 43
-1.114149 1.014361 2.457 171 172 73
-1.105702 1.018942 2.469 164 167 75
-1.102451 1.028485 2.493 167 169 81
-1.097646 1.036799 2.514 178 181 89
-1.093061 1.045533 2.536 189 191 101
-1.087403 1.053451 2.556 177 183 78
-1.082383 1.062201 2.578 183 185 107
-1.083768 1.07755 2.616 185 186 110
-1.083116 1.091255 2.65 186 191 99
-1.083316 1.106201 2.687 182 189 80
-1.088693 1.126915 2.738 189 191 103
-1.0798 1.133228 2.754 189 190 105
-1.073455 1.14243 2.777 185 187 97
-1.072207 1.157398 2.814 186 190 94
-1.06794 1.169492 2.844 186 192 82
-1.064839 1.183238 2.878 181 185 83
-1.061014 1.196578 2.911 183 186 94
-1.054688 1.207459 2.938 187 196 76
-1.051261 1.222044 2.974 186 190 86
-0.3524547 0.7195482 1.755 222 219 111
-0.3503546 0.7351148 1.793 179 178 70
-0.1701124 0.7133465 1.74 139 135 48
-0.160122 0.71089 1.734 183 177 72
-0.1512396 0.7133532 1.74 255 251 160
-0.1431886 0.7203262 1.757 196 192 77
-0.1336598 0.7203297 1.757 191 181 60
-0.1242016 0.7207431 1.758 199 191 62
-0.114602 0.7203365 1.757 195 180 90
-0.1050131 0.7199299 1.756 186 180 61
-0.09543496 0.719523 1.755 189 188 52
-0.08640607 0.7236257 1.765 198 198 113
-0.09176464 0.8642542 2.108 198 198 113
-0.08059818 0.867127 2.115 24 19 9
-0.06873469 0.8622098 2.103 25 22 6
-0.05683771 0.8548322 2.085 33 31 13
-0.04600937 0.8638538 2.107 22 19 3
-0.03476178 0.8683653 2.118 22 19 5
-0.02320801 0.8659064 2.112 24 21 5
-0.01151339 0.8482772 2.069 17 12 5
-0.0002921171 0.8507374 2.075 47 41 24
0.01098896 0.8527873 2.08 67 63 38
0.02251699 0.8622165 2.103 27 26 4
0.03387509 0.8609855 2.1 29 26 12
0.04479104 0.8519642 2.078 32 32 12
0.05598088 0.8507324 2.075 30 28 10
0.06781856 0.8581101 2.093 38 37 15
0.0791327 0.8576974 2.092 51 50 20
0.08961413 0.8494948 2.072 53 51 17
0.1014847 0.8548215 2.085 67 65 30
0.1127389 0.854408 2.084 50 49 19
0.1242201 0.8556343 2.087 29 28 4
0.1352792 0.8539905 2.083 56 60 15
0.1462244 0.8519367 2.078 65 66 28
0.1566604 0.8474228 2.067 53 53 21
0.1687638 0.8519284 2.078 35 35 5
0.1800334 0.8519243 2.078 66 66 40
0.1911187 0.8511004 2.076 51 51 25
0.2023772 0.8510964 2.076 36 34 10
0.2140474 0.8527325 2.08 36 34 9
0.2247858 0.8506793 2.075 36 34 10
0.2359251 0.8502662 2.074 44 40 15
0.2469344 0.8494436 2.072 48 44 19
0.2585451 0.8506712 2.075 46 42 17
0.2684981 0.84657 2.065 42 38 14
0.2782075 0.8420596 2.054 33 32 10
0.2434328 0.6821752 1.664 189 187 82
0.2512443 0.6788969 1.656 209 201 104
0.2594407 0.6768492 1.651 246 238 151
0.2677459 0.6752124 1.647 244 241 168
0.4073527 0.9630213 2.349 243 240 167
0.419739 0.9622104 2.347 245 244 187
0.4317363 0.9605814 2.343 240 243 189
0.4448294 0.9614143 2.345 238 242 190
0.4569701 0.9601992 2.342 238 243 194
0.4692802 0.9593967 2.34 240 244 194
0.4819823 0.9594164 2.34 237 241 191
0.4944748 0.9590287 2.339 240 244 194
0.5069584 0.9586435 2.338 242 247 193
0.5192112 0.9578514 2.336 244 249 193
0.5316722 0.957472 2.335 240 244 192
0.5441252 0.957096 2.334 244 249 193
0.556093 0.9559033 2.331 242 247 193
0.5682754 0.9551241 2.329 244 249 193
0.5809382 0.9551687 2.329 243 250 192
0.5936046 0.9552173 2.329 241 248 190
0.6057543 0.9544498 2.327 244 250 194
0.618418 0.9545068 2.327 243 248 198
0.6305436 0.9537478 2.325 246 250 198
0.6423756 0.9525831 2.322 244 249 200
0.6555908 0.9534748 2.324 247 250 204
0.6676828 0.9527303 2.322 246 251 197
0.6794658 0.9515806 2.319 247 253 195
0.6915208 0.9508467 2.317 246 251 195
0.7047762 0.95176 2.319 247 252 196
0.7174415 0.9518585 2.319 247 251 199
0.7291699 0.9507318 2.316 243 250 190
0.7408731 0.9496112 2.313 247 253 199
0.7528774 0.9489074 2.311 248 254 198
0.7658623 0.9494423 2.312 245 251 195
0.7778572 0.9487526 2.31 246 252 199
0.7901819 0.9484805 2.309 249 251 215
0.8032013 0.9490378 2.31 249 254 205
0.8144763 0.9475485 2.306 247 253 200
0.8264359 0.9468888 2.304 248 254 201
0.8394778 0.9474703 2.305 245 251 197
0.8518038 0.9472385 2.304 246 252 199
0.8641317 0.9470156 2.303 245 250 200
0.876462 0.9468017 2.302 247 252 203
0.8876367 0.945363 2.298 248 254 201
0.8991738 0.9443449 2.295 246 252 196
0.9130772 0.9458057 2.298 248 253 197
0.923807 0.9439843 2.293 250 255 199
0.9369489 0.9446433 2.294 249 255 201
0.9501194 0.9453136 2.295 247 253 200
0.9612218 0.9439353 2.291 248 253 199
0.9744244 0.9446285 2.292 246 251 195
0.9872277 0.9449218 2.292 248 254 200
0.9987429 0.9439904 2.289 248 254 198
1.009804 0.9426582 2.285 246 252 196
1.023081 0.9434016 2.286 249 255 201
1.035486 0.943333 2.285 248 253 203
1.047905 0.9432781 2.284 249 255 201
1.060338 0.9432371 2.283 247 251 199
1.072316 0.9427971 2.281 249 254 200
1.08525 0.9431984 2.281 246 251 195
1.098213 0.9436153 2.281 245 251 193
1.110232 0.9432203 2.279 248 253 199
1.121272 0.9420127 2.275 248 253 204
1.135291 0.9433061 2.277 249 253 203
1.148357 0.9437884 2.277 246 251 197
1.159928 0.9430444 2.274 250 253 197
1.171499 0.9423172 2.271 246 251 195
1.184117 0.9424378 2.27 248 252 200
1.196762 0.9425769 2.269 251 252 204
1.211034 0.9439824 2.271 245 250 196
1.221598 0.9424977 2.266 243 248 192
1.233236 0.9418635 2.263 246 252 199
1.245435 0.9416655 2.261 246 250 198
1.259883 0.9431553 2.263 246 251 195
1.271026 0.9421666 2.259 246 249 204
1.286152 0.9441202 2.262 244 248 196
1.299066 0.9444289 2.261 247 251 199
1.309119 0.9426711 2.255 245 254 172
1.319155 0.9409344 2.249 245 248 194
1.334509 0.942988 2.252 242 245 189
1.348762 0.9442321 2.253 246 249 193
1.35583 0.9404705 2.242 242 248 195
1.374434 0.944706 2.25 243 247 195
1.385181 0.9435132 2.245 242 245 189
1.400296 0.9452909 2.247 246 250 180
1.412989 0.9454162 2.245 241 242 196
1.423823 0.9443066 2.24 246 246 193
1.440447 0.947023 2.244 244 247 193
1.447477 0.9434388 2.233 243 246 192
1.468849 0.9491841 2.244 243 243 201
1.479869 0.9481996 2.239 244 247 193
1.498254 0.9519104 2.245 239 243 191
1.513437 0.9535424 2.246 239 242 194
1.524645 0.9526633 2.241 237 239 187
1.536572 0.952244 2.237 241 242 186
1.561029 0.9595339 2.251 245 245 183
1.562671 0.9527957 2.232 243 241 197
1.566996 0.9477873 2.217 240 240 180
-1.262 0.7295609 1.72 221 221 141
-1.258163 0.7330238 1.731 216 218 124
-1.260031 0.7398911 1.75 199 198 117
-1.271005 0.7522571 1.782 199 195 119
-1.251964 0.7469146 1.772 194 193 94
-1.250642 0.7521415 1.787 192 194 90
-1.247819 0.7565436 1.8 91 77 7
-1.23392 0.7542479 1.797 153 126 37
-1.223542 0.7540835 1.799 168 138 43
-1.21052 0.7522736 1.797 161 136 37
-1.204937 0.7550951 1.806 141 117 28
-1.205257 0.7616952 1.824 131 109 30
-1.205417 0.7683063 1.842 87 66 18
-1.198289 0.7703452 1.849 49 37 8
-1.183436 0.7674113 1.844 40 30 11
-1.184598 0.7749016 1.864 31 25 9
-1.182426 0.7803242 1.879 30 23 12
-1.172651 0.7807814 1.882 26 21 11
-1.161047 0.7800177 1.882 22 18 8
-1.124457 0.7623015 1.841 135 115 39
-1.110795 0.7599466 1.837 140 113 28
-1.102021 0.7609236 1.841 148 121 38
-1.092064 0.7610937 1.843 140 113 30
-1.073919 0.7555071 1.831 146 119 30
-1.045515 0.7425279 1.801 163 140 38
-1.031303 0.7394751 1.795 194 181 55
-1.031419 0.7467366 1.814 133 117 13
-1.056106 0.7721045 1.877 178 173 64
-1.155249 0.8529468 2.075 210 202 125
-1.166717 0.8700253 2.118 194 198 110
-1.163552 0.8764271 2.135 121 127 49
-1.160768 0.8832497 2.153 208 217 97
-1.157281 0.8896723 2.17 183 181 58
-1.155746 0.8977445 2.191 177 173 50
-1.149309 0.9021395 2.203 185 175 77
-1.155668 0.916779 2.24 174 167 52
-1.147353 0.9199665 2.249 184 174 53
-1.147544 0.930118 2.275 173 165 46
-1.136499 0.931286 2.279 172 166 45
-1.136287 0.9414549 2.305 175 171 46
-1.132887 0.949181 2.325 174 167 56
-1.126882 0.9548753 2.34 165 156 48
-1.127399 0.9662909 2.369 173 165 58
-1.124325 0.974858 2.391 171 163 58
-1.123818 0.9858786 2.419 168 160 55
-1.120268 0.9944611 2.441 171 165 58
-1.121031 1.007124 2.473 162 163 45
-1.107582 1.007172 2.474 120 118 24
-1.106525 1.018629 2.503 169 177 58
-1.099929 1.02521 2.52 178 181 85
-1.093598 1.032207 2.538 174 180 68
-1.088364 1.040433 2.559 187 190 98
-1.080819 1.046635 2.575 176 180 92
-1.080159 1.059754 2.608 181 184 90
-1.077926 1.071659 2.638 183 190 81
-1.078605 1.08682 2.676 189 191 101
-1.083254 1.106452 2.725 187 190 98
-1.081892 1.120403 2.76 193 199 94
-1.075523 1.129489 2.783 186 192 87
-1.072347 1.142234 2.815 185 192 83
-1.070711 1.157015 2.852 193 197 93
-1.065354 1.16815 2.88 185 189 93
-1.061892 1.181725 2.914 186 187 103
-1.059506 1.196928 2.952 182 185 93
-1.054597 1.209703 2.984 187 189 101
-0.3675358 0.7209391 1.782 158 157 77
-0.3522414 0.7095995 1.754 216 218 98
-0.3507344 0.7261763 1.795 179 179 66
-0.1701163 0.7039256 1.74 144 136 39
-0.1600336 0.7010983 1.733 186 181 72
-0.150896 0.7023166 1.736 251 244 143
-0.1430297 0.710008 1.755 197 194 65
-0.1336638 0.7108217 1.757 195 187 58
-0.1242055 0.7112308 1.758 194 187 64
-0.1144101 0.7096168 1.754 191 182 57
-0.1049569 0.7100255 1.755 187 180 54
-0.09549274 0.710434 1.756 196 192 67
-0.08650714 0.714888 1.767 192 195 99
-0.08872076 0.8245323 2.038 106 109 13
-0.07873392 0.8358641 2.066 39 34 13
-0.06788756 0.8403177 2.077 35 34 12
-0.0565401 0.8391066 2.074 28 30 4
-0.04539978 0.8411317 2.079 40 41 9
-0.03425439 0.8443702 2.087 39 37 12
-0.02291225 0.8435622 2.085 47 45 20
-0.01153056 0.8383034 2.072 32 25 2
-0.0002911437 0.8366854 2.068 68 64 29
0.01094187 0.8378989 2.071 66 69 24
0.02228235 0.841944 2.081 66 70 25
0.03356997 0.8419427 2.081 38 41 0
0.0447713 0.8403227 2.077 79 82 40
0.05603708 0.8403205 2.077 78 80 42
0.06720555 0.8391041 2.074 83 89 33
0.07841703 0.8386964 2.073 86 89 41
0.0894445 0.8366699 2.068 64 65 17
0.1004176 0.8346431 2.063 85 90 41
0.1113904 0.8330204 2.059 83 88 46
0.1224387 0.8322068 2.057 19 25 0
0.13366 0.8326066 2.058 92 104 61
0.1446809 0.8317923 2.056 105 114 65
0.1553767 0.8293598 2.05 69 76 26
0.1663321 0.8285452 2.048 74 85 38
0.1776123 0.8293489 2.05 106 117 80
0.1886377 0.8289387 2.049 94 97 73
0.1996523 0.8285288 2.048 59 59 29
0.2114791 0.8313553 2.055 48 48 18
0.2227317 0.8317546 2.056 68 68 38
0.2339952 0.8321543 2.057 87 88 56
0.2453886 0.8329587 2.059 69 71 33
0.2561807 0.8317408 2.056 70 70 36
0.2665502 0.8293099 2.05 58 55 27
0.2768547 0.8268794 2.044 35 32 11
0.2437255 0.6739599 1.666 193 184 100
0.2507885 0.6687002 1.653 204 200 77
0.2592821 0.6674865 1.65 245 240 139
0.2677435 0.6662738 1.647 243 241 165
0.4064791 0.9482433 2.344 243 241 165
0.4193731 0.9486532 2.345 249 245 201
0.4315419 0.9474469 2.342 241 246 192
0.444438 0.9478607 2.343 240 245 195
0.4567608 0.9470627 2.341 242 246 200
0.4690633 0.9462669 2.339 236 241 191
0.4819634 0.9466869 2.34 239 243 191
0.4942419 0.9458957 2.338 240 244 192
0.5067174 0.9455117 2.337 243 249 196
0.5185174 0.9439166 2.333 243 248 192
0.5314145 0.9443474 2.334 242 250 182
0.5443251 0.9447812 2.335 245 250 196
0.5565335 0.9440045 2.333 243 247 195
0.5687232 0.9432311 2.331 246 251 195
0.5808942 0.9424613 2.329 244 250 192
0.5933018 0.9420998 2.328 242 247 191
0.6059626 0.942147 2.328 243 249 195
0.6178302 0.9409841 2.325 244 249 200
0.6302117 0.940635 2.324 246 252 199
0.6423103 0.9398856 2.322 244 250 192
0.6552383 0.9403551 2.323 246 251 195
0.6678949 0.9404249 2.323 245 250 200
0.6793852 0.9388803 2.319 244 250 197
0.6914347 0.9381507 2.317 244 250 197
0.7037725 0.9378314 2.316 248 254 201
0.7154875 0.9367079 2.313 245 250 201
0.7281213 0.9368052 2.313 246 250 205
0.7407627 0.9369088 2.313 248 252 206
0.7514575 0.9345881 2.307 250 254 209
0.7647448 0.9355147 2.309 246 252 199
0.7770528 0.935233 2.308 245 251 198
0.7897014 0.9353637 2.308 248 254 201
0.8023598 0.9355015 2.308 246 252 198
0.8136163 0.9340258 2.304 245 251 197
0.8262741 0.9341792 2.304 250 255 203
0.8389434 0.9343408 2.304 247 253 199
0.8508856 0.9336996 2.302 246 251 201
0.8635685 0.9338782 2.302 250 255 203
0.8755035 0.9332545 2.3 247 253 199
0.8870441 0.9322338 2.297 248 254 198
0.8997413 0.9324399 2.297 248 254 198
0.9128508 0.933062 2.298 249 255 199
0.9235708 0.9312578 2.293 247 253 199
0.9362932 0.9314941 2.293 248 253 204
0.9469637 0.9297095 2.288 247 251 206
0.958855 0.9291543 2.286 250 255 205
0.9724432 0.9302364 2.288 247 253 200
0.9860732 0.9313307 2.29 247 253 199
0.9975652 0.9304035 2.287 245 251 195
1.01037 0.9307089 2.287 250 255 201
1.023198 0.9310271 2.287 249 255 202
1.034689 0.9301366 2.284 248 254 201
1.047088 0.9300737 2.283 248 254 201
1.059037 0.9296169 2.281 247 252 202
1.071459 0.9295815 2.28 249 254 198
1.085324 0.930784 2.282 246 252 192
1.095871 0.929146 2.277 249 255 199
1.107364 0.9283382 2.274 249 254 200
1.120331 0.9287705 2.274 248 253 199
1.134825 0.930445 2.277 248 253 199
1.145354 0.9288669 2.272 251 255 200
1.160447 0.9309855 2.276 249 254 198
1.170982 0.9294402 2.271 244 253 186
1.18306 0.9291394 2.269 247 252 196
1.198843 0.9317246 2.274 249 254 198
1.210992 0.9314616 2.272 247 251 199
1.221543 0.9299868 2.267 246 250 198
1.230988 0.9277087 2.26 245 249 199
1.24535 0.9291447 2.262 245 250 201
1.260894 0.9314253 2.266 243 248 199
1.271472 0.9300283 2.261 246 249 201
1.280334 0.927416 2.253 245 249 199
1.297765 0.9310012 2.26 245 250 196
1.307209 0.928843 2.253 245 249 199
1.322486 0.9308309 2.256 246 249 204
1.33371 0.9299554 2.252 245 250 196
1.342551 0.9274498 2.244 242 247 191
1.353772 0.9266196 2.24 242 247 193
1.372332 0.9307826 2.248 244 248 196
1.386739 0.9320787 2.249 242 246 194
1.396866 0.9305007 2.243 244 247 202
1.411392 0.9318545 2.244 245 248 192
1.424096 0.9319925 2.242 247 248 192
1.440057 0.9342413 2.245 245 246 189
1.45419 0.9352753 2.245 245 246 190
1.464479 0.9338404 2.239 248 246 202
1.474774 0.9324341 2.233 241 242 186
1.49108 0.9348198 2.236 244 246 194
1.496068 0.9301289 2.222 243 246 200
1.518641 0.9363581 2.234 242 242 198
1.526366 0.9334056 2.224 241 243 191
1.544452 0.9367855 2.229 245 248 192
1.556411 0.9364244 2.225 243 244 188
1.565598 0.9344146 2.217 240 241 195
-1.264468 0.7211872 1.725 213 217 115
-1.26353 0.7262815 1.74 214 212 127
-1.256008 0.7276413 1.746 206 204 120
-1.266312 0.7394316 1.777 205 200 119
-1.263582 0.7437391 1.79 204 200 95
-1.251676 0.7426712 1.79 191 188 80
-1.247473 0.7461939 1.801 132 100 33
-1.237718 0.7464264 1.804 159 133 40
-1.223247 0.7437944 1.8 170 143 46
-1.211596 0.7428479 1.8 167 143 44
-1.204018 0.7444041 1.806 143 120 28
-1.201717 0.7492764 1.82 117 99 33
-1.215655 0.7644437 1.859 76 64 21
-1.20132 0.7619399 1.855 47 38 8
-1.185176 0.758236 1.848 37 27 10
-1.190141 0.76809 1.874 34 23 10
-1.184153 0.7709869 1.883 28 19 8
-1.176868 0.7730836 1.89 26 16 7
-1.165855 0.7727472 1.891 29 14 8
-1.129859 0.7556951 1.851 130 114 36
-1.108305 0.7480775 1.834 138 114 26
-1.095981 0.746607 1.832 137 112 29
-1.088467 0.7484167 1.838 139 114 31
-1.067446 0.7408853 1.821 146 122 33
-1.045513 0.732572 1.802 161 141 37
-1.033039 0.7307895 1.799 193 182 56
-1.028597 0.7347103 1.81 138 125 27
-1.149655 0.8374369 2.066 208 206 112
-1.164487 0.856721 2.115 188 193 121
-1.158087 0.8606159 2.126 63 74 0
-1.162078 0.8813835 2.18 178 173 50
-1.153644 0.8840983 2.188 189 180 72
-1.152455 0.8924811 2.21 180 174 53
-1.148986 0.8992576 2.228 181 174 51
-1.148914 0.9088675 2.253 176 169 46
-1.143043 0.9140492 2.267 179 172 49
-1.14203 0.923272 2.291 177 171 50
-1.13634 0.9288766 2.306 169 164 43
-1.13733 0.9401288 2.335 177 172 53
-1.126949 0.9421303 2.341 167 162 44
-1.122714 0.9493748 2.36 171 164 49
-1.124873 0.9622579 2.393 172 165 54
-1.121579 0.9707239 2.415 171 168 50
-1.118523 0.9795998 2.438 168 164 51
-1.115234 0.9884835 2.461 166 162 49
-1.11395 0.9993824 2.489 164 159 48
-1.111051 1.009084 2.514 143 141 37
-1.101351 1.012773 2.524 187 185 100
-1.096731 1.021287 2.546 178 178 94
-1.090188 1.028205 2.564 168 174 68
-1.084725 1.036334 2.585 184 187 95
-1.079049 1.044472 2.606 177 184 74
-1.075611 1.055021 2.633 191 191 110
-1.073102 1.066779 2.663 184 191 81
-1.077831 1.086152 2.712 181 189 73
-1.078509 1.101925 2.752 188 194 88
-1.076444 1.1153 2.786 189 192 100
-1.073259 1.12788 2.818 185 193 77
-1.068237 1.138866 2.846 186 192 87
-1.064772 1.151858 2.879 184 185 111
-1.062416 1.166457 2.916 187 195 90
-1.059668 1.181061 2.953 184 189 87
-1.058648 1.19807 2.996 185 189 93
-0.3514288 0.6984711 1.75 226 219 116
-0.3505311 0.7160254 1.794 181 180 72
-0.1698282 0.6933123 1.737 139 137 33
-0.1599465 0.6913225 1.732 186 182 67
-0.1509012 0.692925 1.736 255 242 176
-0.1428719 0.6997163 1.753 200 191 83
-0.1334407 0.7001212 1.754 194 184 45
-0.1239985 0.7005258 1.755 193 184 49
-0.11448 0.7005311 1.755 196 190 53
-0.1049614 0.7005361 1.755 194 183 65
-0.09533374 0.6997425 1.753 193 188 67
-0.08695164 0.7089277 1.776 188 191 115
-0.08920369 0.817906 2.049 118 121 45
-0.07843268 0.8215027 2.058 42 41 17
-0.06733508 0.8223048 2.06 42 43 21
-0.05629743 0.8243037 2.065 44 48 22
-0.04520543 0.8263023 2.07 76 79 37
-0.03402625 0.827502 2.073 83 88 39
-0.02273754 0.8259068 2.069 92 92 64
-0.01151443 0.8259076 2.069 29 23 6
-0.000291158 0.8255088 2.068 55 53 19
0.01093183 0.8259076 2.069 77 83 27
0.02216565 0.826306 2.07 46 54 19
0.03331348 0.8243086 2.065 26 33 2
0.04453633 0.8247057 2.066 15 18 0
0.0558239 0.8259007 2.069 51 55 38
0.06704669 0.8258976 2.069 44 46 26
0.07811802 0.8242972 2.065 35 33 15
0.08940532 0.8250914 2.067 78 73 35
0.1005194 0.8242884 2.065 33 31 7
0.1113953 0.8218881 2.059 26 28 11
0.1226225 0.822282 2.06 23 24 10
0.1340552 0.8238728 2.064 22 23 9
0.14532 0.8242658 2.065 25 27 10
0.1558374 0.8206668 2.056 58 59 35
0.1670692 0.8210594 2.057 26 26 6
0.1785715 0.8226491 2.061 25 29 12
0.1895646 0.8218439 2.059 30 32 12
0.2018032 0.8262275 2.07 29 29 9
0.2144697 0.8318084 2.084 30 29 7
0.2304295 0.8489643 2.127 36 34 14
0.2454905 0.8613304 2.158 26 24 6
0.2829539 0.8337659 2.089 26 23 7
0.2432887 0.6637327 1.663 194 189 90
0.2507899 0.6597388 1.653 210 205 96
0.2592827 0.6585394 1.65 245 238 137
0.2675807 0.6569416 1.646 244 244 149
0.4063025 0.9351242 2.343 243 243 148
0.4191896 0.9355255 2.344 249 245 200
0.4313513 0.9343319 2.341 242 246 196
0.4438607 0.9339384 2.34 240 244 192
0.4567506 0.9343448 2.341 242 248 194
0.4690509 0.9335559 2.339 241 247 194
0.4813309 0.9327692 2.337 241 246 192
0.4940134 0.932783 2.337 242 247 193
0.5066977 0.9327993 2.337 242 247 193
0.5189394 0.9320198 2.335 242 247 191
0.5313891 0.9316424 2.334 243 249 191
0.5435973 0.9308686 2.332 245 250 194
0.5557862 0.9300979 2.33 246 249 193
0.5679561 0.9293304 2.328 245 250 194
0.5798579 0.9281672 2.325 244 249 195
0.5924948 0.9282051 2.325 243 248 194
0.6056559 0.9290454 2.327 246 252 198
0.6167167 0.9266956 2.321 247 252 203
0.6296145 0.9271448 2.322 245 249 189
0.642804 0.9279976 2.324 244 249 186
0.6551741 0.9276572 2.323 247 253 195
0.6666757 0.9261234 2.319 247 253 200
0.6784322 0.9249938 2.316 248 253 204
0.6910568 0.9250674 2.316 246 251 201
0.702776 0.923948 2.313 243 249 196
0.7150875 0.923633 2.312 244 250 196
0.7277097 0.9237233 2.312 246 252 199
0.7393786 0.922621 2.309 248 253 203
0.7519995 0.9227235 2.309 248 253 203
0.7639664 0.9220333 2.307 248 253 204
0.7769297 0.9225486 2.308 244 252 188
0.7888869 0.9218717 2.306 247 253 200
0.8011793 0.9216018 2.305 247 252 202
0.8138242 0.921739 2.305 250 254 202
0.8261209 0.9214841 2.304 249 253 201
0.8373258 0.920037 2.3 246 252 199
0.8492375 0.9193977 2.298 250 255 206
0.8618898 0.919567 2.298 246 252 198
0.8749356 0.9201453 2.299 250 255 202
0.8868477 0.9195319 2.297 248 253 203
0.8983603 0.9185271 2.294 249 254 204
0.9106491 0.9183325 2.293 248 254 201
0.9237475 0.9189486 2.294 247 252 202
0.9360569 0.9187739 2.293 248 253 203
0.9475447 0.9178079 2.29 250 254 208
0.9606943 0.9184558 2.291 247 252 203
0.9725987 0.9179118 2.289 248 254 201
0.9836395 0.9165769 2.285 248 254 200
0.9968359 0.9172589 2.286 248 254 198
1.010506 0.9183549 2.288 249 255 197
1.023326 0.9186607 2.288 250 255 202
1.035264 0.9181762 2.286 248 253 199
1.046285 0.9169007 2.282 248 253 197
1.058679 0.9168436 2.281 246 252 198
1.070147 0.9159958 2.278 247 252 198
1.082084 0.9155637 2.276 249 253 201
1.096431 0.9171579 2.279 251 255 206
1.107434 0.9159501 2.275 250 255 201
1.118421 0.9147564 2.271 245 250 196
1.131885 0.915592 2.272 248 253 199
1.144384 0.9156381 2.271 250 253 199
1.158435 0.9169109 2.273 249 254 198
1.170481 0.9165875 2.271 246 252 199
1.184626 0.9178963 2.273 248 252 202
1.194616 0.9159921 2.267 247 253 193
1.204575 0.9141037 2.261 246 251 195
1.221505 0.9174908 2.268 248 253 197
1.233116 0.9168534 2.265 247 252 198
1.245835 0.9170448 2.264 246 250 200
1.258031 0.9168515 2.262 250 252 210
1.268564 0.9154617 2.257 248 251 195
1.279086 0.914091 2.252 246 249 193
1.294764 0.916396 2.256 245 251 193
1.308802 0.9175071 2.257 244 252 185
1.32232 0.9182361 2.257 246 250 198
1.33175 0.9161395 2.25 246 250 198
1.342349 0.9148786 2.245 246 251 197
1.355363 0.9152716 2.244 247 250 194
1.370257 0.9169154 2.246 244 247 191
1.38524 0.9185882 2.248 242 246 194
1.395956 0.9174276 2.243 244 248 198
1.409823 0.9183393 2.243 245 247 197
1.419952 0.9168219 2.237 245 248 192
1.437772 0.9202534 2.243 247 248 192
1.449917 0.9200254 2.24 245 246 190
1.461451 0.9194161 2.236 250 250 197
1.473676 0.9192483 2.233 241 244 190
1.487946 0.9203485 2.233 244 247 191
1.499613 0.9198335 2.229 241 244 190
1.515395 0.9218301 2.231 241 244 190
1.529925 0.923039 2.231 248 248 196
1.543168 0.923458 2.229 243 244 188
1.555787 0.9234998 2.226 242 243 187
1.567061 0.9227484 2.221 245 245 192
-1.280875 0.7206177 1.749 215 214 133
-1.272545 0.7215232 1.754 215 216 126
-1.263522 0.722047 1.758 199 200 110
-1.269488 0.7312129 1.783 204 201 121
-1.257575 0.7301447 1.783 197 195 91
-1.244351 0.728292 1.781 178 179 61
-1.240233 0.7317824 1.792 152 133 41
-1.230567 0.7320294 1.795 154 128 33
-1.215508 0.7290455 1.79 164 137 38
-1.212695 0.7334182 1.803 166 140 45
-1.201793 0.7329314 1.804 140 115 32
-1.203485 0.7401818 1.824 104 86 20
-1.218714 0.755953 1.865 74 60 17
-1.203722 0.7530891 1.86 47 35 6
-1.185654 0.748234 1.85 42 32 15
-1.185544 0.7547258 1.868 33 24 11
-1.177101 0.7559807 1.873 28 21 10
-1.173633 0.7604818 1.886 27 17 10
-1.163284 0.7605654 1.888 25 15 8
-1.123685 0.7413522 1.842 140 120 32
-1.111272 0.7398875 1.84 144 127 37
-1.101923 0.7404545 1.843 134 114 28
-1.083708 0.7350188 1.831 142 117 32
-1.062169 0.7272047 1.813 149 124 32
-1.042049 0.7202229 1.797 163 140 37
-1.031346 0.7196775 1.797 182 171 54
-1.030339 0.7259538 1.814 160 150 47
-1.06121 0.7550328 1.888 199 194 93
-1.156877 0.831246 2.08 200 204 124
-1.156774 0.8394818 2.102 194 203 121
-1.151011 0.843734 2.114 82 91 20
-1.164537 0.8623582 2.162 150 160 85
-1.151969 0.8618432 2.162 180 177 59
-1.148926 0.8685175 2.18 180 176 51
-1.152487 0.8803778 2.211 179 174 49
-1.149541 0.8874664 2.23 183 178 55
-1.146921 0.8949619 2.25 178 173 48
-1.139065 0.8984905 2.26 185 178 53
-1.138104 0.907595 2.284 174 168 47
-1.139857 0.9190896 2.314 174 167 50
-1.133508 0.9242371 2.328 178 171 54
-1.127994 0.9301891 2.344 174 169 48
-1.124705 0.9381343 2.365 174 166 45
-1.131545 0.9548113 2.408 170 161 44
-1.125856 0.9611841 2.425 172 165 48
-1.120461 0.9679627 2.443 169 166 48
-1.115343 0.9751465 2.462 171 165 50
-1.113169 0.9851108 2.488 166 160 47
-1.110286 0.9946858 2.513 171 166 57
-1.107147 1.004268 2.538 158 155 54
-1.098584 1.009111 2.551 184 183 92
-1.097125 1.020686 2.581 167 167 82
-1.087382 1.024756 2.592 161 158 91
-1.080022 1.031207 2.609 183 188 96
-1.074534 1.039643 2.631 184 183 117
-1.072851 1.052036 2.663 180 181 105
-1.070435 1.064041 2.694 189 192 98
-1.067302 1.075657 2.724 185 194 75
-1.070808 1.094385 2.772 190 195 95
-1.069613 1.108774 2.809 193 193 112
-1.068777 1.123958 2.848 188 189 115
-1.06457 1.135991 2.879 184 183 116
-1.061493 1.149607 2.914 184 189 97
-1.057688 1.162835 2.948 187 192 92
-1.05423 1.176858 2.984 183 189 84
-0.3516232 0.6893607 1.751 224 218 113
-0.3499399 0.7051042 1.791 180 176 72
-0.1698348 0.6839175 1.737 152 149 50
-0.159953 0.6819559 1.732 185 183 68
-0.1511684 0.6847191 1.739 246 245 164
-0.1430412 0.6910259 1.755 193 187 66
-0.133599 0.6914263 1.756 196 190 53
-0.1239337 0.6906453 1.754 200 190 61
-0.1144203 0.6906515 1.754 194 181 63
-0.1049666 0.6910511 1.755 195 185 56
-0.09522983 0.6894814 1.751 194 190 63
-0.08651552 0.6957867 1.767 195 191 124
-0.08907779 0.805653 2.046 105 104 28
-0.02384884 0.8545013 2.17 16 14 4
-0.01152065 0.8151244 2.07 26 20 4
-0.0002930049 0.8194563 2.081 31 28 0
0.01115438 0.8312694 2.111 28 25 5
0.02347336 0.8631645 2.192 16 11 4
0.03434788 0.8383547 2.129 21 18 11
0.04647904 0.8489843 2.156 15 13 3
0.05909188 0.8623696 2.19 19 17 7
0.07139291 0.8674849 2.203 17 15 5
0.08338082 0.8678741 2.204 18 14 4
0.09040496 0.8229793 2.09 43 35 19
0.1057821 0.8556566 2.173 26 20 4
0.1188133 0.864707 2.196 24 20 9
0.1312007 0.8678502 2.204 21 17 6
0.1428953 0.8662679 2.2 24 19 8
0.1532793 0.8575976 2.178 25 22 6
0.1616811 0.8398709 2.133 43 41 23
0.1704067 0.8260815 2.098 37 34 18
0.1867239 0.8485167 2.155 24 21 5
0.1963856 0.8398457 2.133 30 27 13
0.2081481 0.8406243 2.135 25 22 6
0.21633 0.8276223 2.102 34 30 14
0.2391046 0.8689549 2.207 30 26 10
0.2536893 0.8780014 2.23 25 21 7
0.2657819 0.8779923 2.23 25 20 9
0.2770022 0.8752275 2.223 25 21 7
0.2876262 0.8708882 2.212 33 30 14
0.29488 0.8571004 2.177 29 26 10
0.2430001 0.6539368 1.661 189 188 89
0.2507932 0.6507825 1.653 209 202 99
0.2589711 0.64881 1.648 236 232 128
0.2675826 0.6480192 1.646 244 242 158
0.4056091 0.9208426 2.339 246 244 160
0.4188306 0.9220225 2.342 250 252 184
0.4313484 0.9216293 2.341 239 244 188
0.4440458 0.9216313 2.341 241 246 190
0.4563539 0.9208477 2.339 242 247 191
0.4688419 0.9204596 2.338 239 245 189
0.4811142 0.9196798 2.336 243 249 193
0.4935777 0.9192959 2.335 240 249 181
0.5062487 0.9193081 2.335 241 249 185
0.5186991 0.918929 2.334 242 248 194
0.5311407 0.9185526 2.333 242 247 193
0.542641 0.916604 2.328 246 251 195
0.5555207 0.9170208 2.329 246 251 195
0.5681699 0.9170469 2.329 244 249 193
0.5803231 0.9162889 2.327 244 249 193
0.5916931 0.914353 2.322 245 250 196
0.6050943 0.9155709 2.325 244 250 196
0.6172031 0.9148238 2.323 246 251 201
0.6298363 0.9148682 2.323 246 250 200
0.6413675 0.9133414 2.319 246 251 197
0.6537057 0.9130006 2.318 247 253 197
0.6660378 0.9126643 2.317 245 251 197
0.6780713 0.9119388 2.315 246 252 199
0.690387 0.9116123 2.314 247 252 202
0.7023937 0.9108968 2.312 247 252 202
0.7153127 0.9113688 2.313 247 252 202
0.7276198 0.9110584 2.312 249 254 204
0.7386425 0.9091775 2.307 248 253 203
0.7509204 0.9088787 2.306 248 254 200
0.7628645 0.908192 2.304 247 253 200
0.7764778 0.9094828 2.307 247 252 202
0.7887646 0.9092036 2.306 247 253 200
0.8010498 0.9089313 2.305 249 254 200
0.8129811 0.9082718 2.303 249 253 203
0.8252592 0.9080141 2.302 249 253 203
0.8371733 0.9073695 2.3 248 252 200
0.8483379 0.9059435 2.296 246 251 201
0.8613456 0.9064986 2.297 249 255 202
0.875138 0.9078516 2.3 249 254 205
0.8862746 0.9064504 2.296 249 253 208
0.8977728 0.9054528 2.293 249 253 207
0.9092522 0.9044639 2.29 248 253 204
0.9215188 0.9042742 2.289 247 251 205
0.9333823 0.9036993 2.287 248 253 204
0.9468948 0.9047151 2.289 248 252 206
0.9587702 0.9041606 2.287 252 255 207
0.9710663 0.9040119 2.286 248 254 200
0.9820792 0.9026875 2.282 250 255 202
0.995247 0.9033522 2.283 249 255 199
1.008447 0.9040291 2.284 250 255 203
1.020785 0.9039263 2.283 247 252 203
1.032681 0.9034401 2.281 247 251 206
1.04412 0.9025698 2.278 252 255 215
1.056942 0.902901 2.278 250 255 203
1.069319 0.9028494 2.277 251 255 206
1.080761 0.9020181 2.274 250 255 206
1.095562 0.903978 2.278 251 255 206
1.107518 0.9035721 2.276 249 255 202
1.118004 0.9019893 2.271 252 255 209
1.130953 0.9024071 2.271 249 253 203
1.144438 0.9032384 2.272 250 254 202
1.15593 0.9024956 2.269 249 254 198
1.169482 0.9033604 2.27 246 251 197
1.182561 0.9038448 2.27 250 253 207
1.192516 0.9019569 2.264 246 254 186
1.205103 0.9020776 2.263 247 252 196
1.220409 0.904211 2.267 248 253 197
1.233083 0.9043703 2.266 248 253 199
1.243038 0.9025522 2.26 246 250 198
1.254634 0.9019504 2.257 248 252 202
1.265679 0.9009679 2.253 247 252 198
1.281266 0.9032063 2.257 245 250 194
1.292361 0.9022653 2.253 245 250 194
1.305198 0.9025471 2.252 246 251 195
1.32159 0.9052582 2.257 245 250 196
1.328631 0.901574 2.246 246 250 198
1.340378 0.9011211 2.243 246 250 198
1.35939 0.9055167 2.252 244 247 191
1.372477 0.9059204 2.251 247 250 194
1.382535 0.9043361 2.245 241 246 190
1.390097 0.9011621 2.235 242 246 200
1.402 0.9008338 2.232 242 246 194
1.418377 0.9033602 2.236 246 248 196
1.432954 0.9047067 2.237 245 247 197
1.441151 0.9020362 2.228 245 248 194
1.455191 0.9030373 2.228 247 250 196
1.472608 0.9060998 2.233 247 247 195
1.486178 0.9067633 2.232 245 247 187
1.499822 0.9074603 2.231 244 247 193
1.510827 0.906563 2.226 244 243 204
1.524602 0.9073283 2.225 244 245 199
1.536385 0.9069054 2.221 242 244 192
1.547517 0.9061079 2.216 243 246 190
1.560095 0.9061636 2.213 244 245 189
-1.275331 0.7076144 1.743 219 215 149
-1.269248 0.7097403 1.751 209 209 128
-1.266023 0.7135099 1.763 202 203 119
-1.256324 0.7136617 1.766 196 194 110
-1.253014 0.7174748 1.778 202 196 117
-1.242649 0.7172768 1.78 191 184 101
-1.233722 0.7179126 1.784 154 127 42
-1.226878 0.7197804 1.791 168 139 40
-1.218662 0.7208678 1.796 165 136 35
-1.209112 0.7211773 1.799 167 143 41
-1.198929 0.7211117 1.801 133 110 28
-1.196701 0.7258705 1.815 92 75 9
-1.198935 0.7334396 1.836 70 60 17
-1.191269 0.7350308 1.842 45 37 12
-1.186153 0.7382367 1.852 36 28 11
-1.186048 0.7446451 1.87 26 22 8
-1.179499 0.7470853 1.878 27 22 11
-1.18286 0.7559019 1.902 23 17 10
-1.156426 0.7456654 1.878 24 19 9
-1.121194 0.7295188 1.839 146 121 36
-1.109425 0.7284823 1.838 142 118 30
-1.095925 0.7262793 1.834 144 119 34
-1.076606 0.7201425 1.82 138 113 28
-1.055158 0.7124527 1.802 152 125 34
-1.040344 0.7091386 1.795 161 140 38
-1.031965 0.7101895 1.799 189 175 72
-1.032663 0.7175674 1.819 170 161 53
-1.082602 0.7596421 1.927 204 201 82
-1.159105 0.8213738 2.085 213 213 91
-1.157887 0.8287131 2.105 194 204 99
-1.147767 0.8297658 2.109 55 56 0
-1.158099 0.8457764 2.151 139 139 55
-1.144015 0.8441016 2.148 183 175 54
-1.148968 0.8565846 2.181 181 177 48
-1.148366 0.8651451 2.204 184 180 51
-1.148565 0.8744978 2.229 179 172 55
-1.146473 0.8822885 2.25 185 175 74
-1.139136 0.8861679 2.261 178 172 53
-1.140671 0.8971109 2.29 182 172 69
-1.141415 0.9076676 2.318 176 172 45
-1.137491 0.9147074 2.337 176 171 52
-1.130014 0.9190177 2.349 173 170 51
-1.130987 0.9303783 2.379 173 169 46
-1.124133 0.9354895 2.393 181 170 73
-1.11622 0.9398294 2.405 170 164 43
-1.117827 0.9523834 2.438 174 164 53
-1.11773 0.9637708 2.468 172 165 50
-1.107481 0.9665754 2.476 169 161 49
-1.10865 0.9795381 2.51 168 160 49
-1.106847 0.9901649 2.538 168 159 58
-1.097865 0.9945577 2.55 162 156 51
-1.098545 1.007928 2.585 125 122 23
-1.090469 1.013508 2.6 170 174 72
-1.081419 1.018317 2.613 168 170 82
-1.077961 1.02859 2.64 185 184 110
-1.072612 1.037312 2.663 190 190 109
-1.066231 1.045262 2.684 173 176 84
-1.062379 1.055945 2.712 180 185 85
-1.060165 1.068581 2.745 190 191 107
-1.065218 1.089007 2.798 186 191 89
-1.065577 1.105155 2.84 185 191 95
-1.063639 1.119362 2.877 191 191 110
-1.058396 1.130463 2.906 185 189 103
-1.055002 1.143903 2.941 189 190 116
-1.051237 1.15735 2.976 185 190 98
-0.3522219 0.6810217 1.754 223 220 102
-0.3493515 0.6942213 1.788 214 217 101
-0.1698426 0.6745268 1.737 153 143 64
-0.159776 0.6718168 1.73 195 191 78
-0.151089 0.6749316 1.738 255 246 159
-0.142967 0.6811531 1.754 198 194 65
-0.1336821 0.6823258 1.757 199 186 69
-0.1241524 0.6823332 1.757 195 186 53
-0.1143615 0.6807868 1.753 196 187 61
-0.1049128 0.6811817 1.754 195 185 64
-0.09534417 0.6807995 1.753 193 190 57
-0.08637375 0.6850772 1.764 190 185 114
-0.08115888 0.7239193 1.864 25 21 4
-0.07047557 0.7180985 1.849 28 25 9
-0.06054326 0.719268 1.852 31 29 11
-0.05074182 0.722767 1.861 27 27 9
-0.04112654 0.7313143 1.883 36 34 16
-0.02412513 0.8524928 2.195 28 24 13
-0.01149356 0.8020046 2.065 45 37 20
-0.0002935868 0.8097726 2.085 17 12 0
0.01137703 0.8361821 2.153 35 34 12
0.02388181 0.8660861 2.23 18 13 7
0.03422098 0.8237508 2.121 25 20 14
0.04536088 0.8171458 2.104 21 17 6
0.05869081 0.8447171 2.175 42 38 27
0.07266129 0.8707339 2.242 16 12 1
0.08410476 0.8633497 2.223 20 16 6
0.0905402 0.812856 2.093 43 41 23
0.1071029 0.854405 2.2 20 16 5
0.1205516 0.8652721 2.228 24 20 10
0.1329942 0.8675945 2.234 22 18 8
0.1454365 0.8695279 2.239 27 19 10
0.149628 0.8256353 2.126 29 27 9
0.1651009 0.8458204 2.178 31 29 11
0.1709841 0.8174618 2.105 38 35 19
0.1888995 0.8465776 2.18 24 24 6
0.1980523 0.8353057 2.151 29 26 10
0.2020153 0.8046173 2.072 38 35 19
0.2192214 0.8271301 2.13 36 32 15
0.2425817 0.8694464 2.239 29 25 9
0.2564298 0.87526 2.254 26 22 8
0.2685332 0.8748606 2.253 27 23 9
0.2801271 0.8729081 2.248 25 22 8
0.2920567 0.8721209 2.246 29 26 10
0.3012552 0.863568 2.224 29 26 12
0.243006 0.6449437 1.661 197 192 102
0.2507985 0.6418309 1.653 206 197 106
0.2589758 0.6398835 1.648 240 236 132
0.2677492 0.6394899 1.647 244 243 152
0.2791997 0.6453093 1.662 255 255 189
0.4057859 0.9085528 2.34 246 245 154
0.4186538 0.9089369 2.341 249 253 173
0.4309804 0.9081575 2.339 241 247 187
0.4434756 0.9077678 2.338 243 248 194
0.4559608 0.9073797 2.337 238 243 189
0.4686366 0.9073818 2.337 241 247 193
0.4811075 0.9069975 2.336 241 247 191
0.4931459 0.9058386 2.333 243 249 196
0.5060205 0.9062351 2.334 240 246 193
0.518463 0.9058573 2.333 243 248 199
0.5308965 0.9054822 2.332 244 250 194
0.5428548 0.904333 2.329 244 250 196
0.5550214 0.903575 2.327 245 251 198
0.5676566 0.9035966 2.327 243 249 195
0.5795462 0.9024563 2.324 245 250 194
0.591661 0.9017078 2.322 246 251 195
0.6040173 0.901351 2.321 244 250 196
0.6166319 0.9013861 2.321 245 251 195
0.628708 0.9006487 2.319 248 254 201
0.6399367 0.8987498 2.314 248 252 206
0.6525254 0.8987972 2.314 244 249 193
0.6651185 0.898849 2.314 246 251 195
0.6774238 0.8985171 2.313 249 254 204
0.6900218 0.8985784 2.313 247 253 200
0.7020178 0.8978676 2.311 248 254 201
0.7139982 0.8971621 2.309 247 253 199
0.7269073 0.8976278 2.31 248 254 200
0.7388737 0.8969333 2.308 246 252 198
0.7508254 0.8962445 2.306 248 253 203
0.7634253 0.8963392 2.306 251 255 210
0.7756968 0.8960515 2.305 248 252 207
0.7879659 0.8957703 2.304 247 252 203
0.7995383 0.8947182 2.301 249 254 204
0.8114403 0.8940617 2.299 247 252 203
0.8244059 0.8945794 2.3 250 254 204
0.8359374 0.8935485 2.297 248 252 200
0.8485554 0.8936923 2.297 247 253 195
0.8600606 0.8926767 2.294 249 255 195
0.8726864 0.8928368 2.294 248 253 203
0.8841673 0.8918376 2.291 250 253 213
0.8971946 0.8924042 2.292 250 254 209
0.9106442 0.8933696 2.294 248 253 203
0.9225209 0.8927867 2.292 250 255 203
0.9335751 0.891434 2.288 249 255 201
0.9458421 0.8912597 2.287 248 254 200
0.9589533 0.891875 2.288 249 254 205
0.9712442 0.8917215 2.287 251 255 204
0.9822518 0.8904085 2.283 251 255 207
0.9962851 0.8918369 2.286 251 255 206
1.008165 0.8913264 2.284 250 255 205
1.018703 0.8896561 2.279 247 252 203
1.031018 0.8895589 2.278 249 252 210
1.043802 0.8898645 2.278 249 253 208
1.057538 0.8909648 2.28 250 255 205
1.068504 0.8897333 2.276 249 254 204
1.079452 0.8885145 2.272 248 253 204
1.091823 0.888482 2.271 253 255 205
1.104698 0.8888552 2.271 250 254 209
1.116125 0.8880684 2.268 248 253 203
1.128046 0.8876875 2.266 250 254 202
1.142493 0.8892813 2.269 251 255 202
1.155479 0.8897159 2.269 249 254 198
1.1685 0.890167 2.269 248 253 197
1.179993 0.8894576 2.266 248 251 197
1.192014 0.8891572 2.264 246 253 190
1.203518 0.8884808 2.261 248 253 199
1.215027 0.8878215 2.258 248 252 200
1.229805 0.8895403 2.261 249 253 201
1.24191 0.8893114 2.259 249 253 203
1.255148 0.8898895 2.259 249 253 203
1.265624 0.8885172 2.254 247 253 200
1.279492 0.88953 2.255 247 253 197
1.291127 0.8889859 2.252 249 253 201
1.301619 0.8876724 2.247 245 249 197
1.317955 0.8903321 2.252 247 252 196
1.329085 0.8894573 2.248 245 251 197
1.339625 0.8882082 2.243 243 249 196
1.352576 0.8885658 2.242 241 245 193
1.366795 0.8897416 2.243 245 248 192
1.379241 0.8897532 2.241 245 247 195
1.386755 0.886611 2.231 244 248 198
1.403 0.8890578 2.235 244 248 198
1.418731 0.891138 2.238 247 251 199
1.43009 0.8904598 2.234 244 248 198
1.445351 0.8922024 2.236 244 248 198
1.453535 0.8895837 2.227 244 247 193
1.46498 0.8889885 2.223 247 248 202
1.487768 0.8952286 2.236 243 246 192
1.497373 0.8934978 2.229 246 247 191
1.509011 0.892999 2.225 246 249 195
1.523427 0.8941393 2.225 243 246 190
1.52688 0.8888784 2.209 244 247 191
1.546968 0.8933083 2.217 243 247 187
1.569376 0.8989967 2.228 242 245 189
-1.271288 0.695518 1.739 216 216 136
-1.264538 0.6972291 1.746 211 218 108
-1.26496 0.7029527 1.763 199 203 99
-1.258136 0.7047078 1.77 193 196 80
-1.249896 0.7056921 1.775 197 194 103
-1.244463 0.7082902 1.784 135 134 53
-1.234157 0.708134 1.786 153 129 41
-1.223903 0.7080053 1.788 162 138 36
-1.22387 0.7138358 1.805 162 136 34
-1.206228 0.709408 1.796 170 148 52
-1.196756 0.7097507 1.799 137 119 33
-1.197857 0.7164221 1.818 79 62 14
-1.192257 0.7191666 1.827 65 52 15
-1.190487 0.724288 1.842 42 29 6
-1.187312 0.7286362 1.855 42 32 15
-1.18467 0.7333907 1.869 24 19 8
-1.186308 0.7409023 1.89 22 17 7
-1.178422 0.7425469 1.896 20 14 7
-1.151441 0.7320803 1.871 38 11 0
-1.117506 0.7169625 1.834 143 117 29
-1.105186 0.7155616 1.832 143 116 31
-1.093535 0.7145725 1.831 143 116 33
-1.080761 0.7128241 1.828 139 112 27
-1.05812 0.7044728 1.808 156 129 38
-1.038656 0.6980987 1.793 164 143 43
-1.029159 0.6983651 1.795 192 179 51
-1.032729 0.7075897 1.82 187 170 80
-1.110728 0.7684911 1.978 189 180 87
-1.157459 0.8087499 2.083 206 205 106
-1.159014 0.817933 2.108 193 201 115
-1.148894 0.8189788 2.112 99 99 28
-1.157064 0.833217 2.15 157 146 62
-1.152587 0.8385472 2.165 181 175 62
-1.155346 0.8493075 2.194 186 179 62
-1.15416 0.8573642 2.216 189 179 76
-1.148635 0.8623351 2.23 178 166 72
-1.148078 0.8711821 2.254 178 170 49
-1.141739 0.8757865 2.267 175 168 42
-1.134786 0.8800157 2.279 178 172 51
-1.130681 0.8865719 2.297 175 170 47
-1.132727 0.8981527 2.328 176 171 46
-1.134931 0.9101239 2.36 176 170 49
-1.129674 0.9163174 2.377 171 166 48
-1.123313 0.9217497 2.392 171 165 44
-1.118666 0.9287323 2.411 177 164 75
-1.117957 0.9391893 2.439 173 166 49
-1.116505 0.9492675 2.466 170 164 43
-1.10941 0.9547344 2.481 173 166 49
-1.110119 0.9671353 2.514 170 162 55
-1.109175 0.9783875 2.544 167 161 46
-1.103614 0.985801 2.564 166 161 43
-1.097852 0.9932225 2.584 169 165 52
-1.090631 0.9994994 2.601 133 130 31
-1.082414 1.005016 2.616 194 188 121
-1.076499 1.012847 2.637 183 187 89
-1.07037 1.020684 2.658 176 174 97
-1.066807 1.031217 2.686 183 184 94
-1.063343 1.04214 2.715 172 174 82
-1.060349 1.053837 2.746 190 190 110
-1.05741 1.065923 2.778 183 188 96
-1.05676 1.080701 2.817 184 186 108
-1.060132 1.100087 2.868 189 197 91
-1.058224 1.11449 2.906 186 191 97
-1.052685 1.125448 2.935 179 184 100
-1.049314 1.139096 2.971 186 190 100
-0.3520202 0.6711243 1.753 231 225 140
-0.3489611 0.6837592 1.786 211 219 100
-0.1693627 0.6632254 1.732 148 145 44
-0.1595077 0.6613202 1.727 191 188 69
-0.1508368 0.6643929 1.735 248 248 168
-0.1428124 0.6709118 1.752 199 195 68
-0.1333097 0.6709204 1.752 203 186 88
-0.1237361 0.6705458 1.751 197 186 60
-0.1143035 0.6709365 1.752 194 184 55
-0.1046802 0.6701779 1.75 198 191 68
-0.095296 0.6709507 1.752 198 194 65
-0.08633053 0.6751696 1.763 198 198 94
-0.08020639 0.7054299 1.842 27 21 4
-0.07028978 0.7062013 1.844 28 25 9
-0.0601878 0.705057 1.841 29 29 11
-0.05025452 0.7058269 1.843 30 30 12
-0.04047413 0.7096599 1.853 38 36 18
-0.03083138 0.7192372 1.878 35 33 15
-0.02131295 0.7426009 1.939 29 27 7
-0.01149437 0.7908577 2.065 59 58 28
-0.0002940301 0.7996668 2.088 27 23 6
0.01151524 0.8345178 2.179 19 15 4
0.02382995 0.8521337 2.225 18 13 6
0.03420726 0.8119185 2.12 20 15 9
0.04547185 0.8077028 2.109 16 11 4
0.05764243 0.8180395 2.136 34 30 20
0.07230978 0.8544175 2.231 19 17 6
0.08441319 0.8544119 2.231 18 16 5
0.08985411 0.7954281 2.077 71 70 32
0.1451859 0.855904 2.235 24 21 7
0.1475257 0.8026641 2.096 41 39 21
0.1664754 0.8409487 2.196 25 23 5
0.1770053 0.834428 2.179 31 28 12
0.1930697 0.8531806 2.228 25 22 6
0.2019306 0.8397662 2.193 24 21 7
0.2094363 0.8225225 2.148 36 33 19
0.2183062 0.8121718 2.121 28 25 9
0.2442188 0.8630874 2.254 27 24 10
0.2581484 0.868818 2.269 28 25 11
0.2712866 0.8714853 2.276 25 22 8
0.283379 0.8707066 2.274 27 24 10
0.2958394 0.8710766 2.275 26 23 9
0.2430136 0.6359547 1.661 189 184 91
0.2505022 0.6321177 1.651 210 205 87
0.2586681 0.6301956 1.646 238 232 125
0.2672674 0.6294227 1.644 249 247 160
0.278701 0.6351589 1.659 255 255 205
0.4049252 0.8939615 2.335 245 243 156
0.4179436 0.89472 2.337 255 255 199
0.4309842 0.8954797 2.339 239 245 191
0.4430985 0.8943266 2.336 241 247 194
0.4549858 0.8927919 2.332 241 247 191
0.4682343 0.8939391 2.335 242 247 197
0.4806924 0.8935566 2.334 245 250 200
0.4929293 0.8927932 2.332 242 248 195
0.5055794 0.8927976 2.332 242 248 195
0.5171199 0.89089 2.327 242 248 195
0.5297459 0.8908989 2.327 247 253 200
0.5421407 0.8905277 2.326 246 252 199
0.554288 0.8897762 2.324 245 251 198
0.5671478 0.8901761 2.325 245 251 198
0.5792728 0.8894306 2.323 245 250 194
0.5913787 0.8886882 2.321 243 249 195
0.6034659 0.8879492 2.319 247 252 203
0.6158003 0.8875965 2.318 246 252 198
0.6283984 0.8876305 2.318 246 252 194
0.6404473 0.8869027 2.316 245 251 195
0.6519146 0.8854128 2.312 247 253 200
0.664205 0.8850762 2.311 249 254 204
0.6776606 0.8862759 2.314 249 254 205
0.6899608 0.8859484 2.313 247 252 202
0.7013445 0.8844766 2.309 248 254 201
0.7136179 0.8841589 2.308 248 254 198
0.7252573 0.8830803 2.305 251 255 201
0.7384713 0.8839228 2.307 249 255 199
0.7504117 0.8832384 2.305 246 251 201
0.7629999 0.8833262 2.305 251 255 210
0.7745866 0.8822705 2.302 249 253 208
0.7861488 0.881221 2.299 248 252 206
0.7980345 0.8805611 2.297 250 254 208
0.8116722 0.8818251 2.3 251 255 207
0.8242775 0.881946 2.3 249 253 203
0.8354376 0.8805401 2.296 251 255 202
0.8484117 0.8810595 2.297 249 255 193
0.8595341 0.8796686 2.293 250 255 187
0.8725264 0.8802038 2.294 248 254 201
0.8847707 0.87998 2.293 251 255 209
0.8970172 0.8797647 2.292 249 254 204
0.9092669 0.8795583 2.291 248 253 199
0.9215201 0.8793608 2.29 247 253 199
0.9333696 0.8787886 2.288 251 255 201
0.9456266 0.87861 2.287 251 255 200
0.9574704 0.878057 2.285 250 255 202
0.9701585 0.8782827 2.285 252 255 205
0.9807145 0.8765968 2.28 251 255 204
0.9951552 0.878382 2.284 248 255 197
1.006571 0.8774865 2.281 247 253 197
1.019316 0.8777564 2.281 252 255 201
1.030272 0.8764986 2.277 251 255 201
1.04258 0.8764071 2.276 250 255 205
1.056755 0.8778689 2.279 250 255 205
1.068172 0.8770325 2.276 250 255 206
1.080057 0.8765941 2.274 251 255 207
1.090984 0.8753976 2.27 250 255 202
1.104324 0.8761428 2.271 250 255 200
1.116229 0.8757451 2.269 250 255 206
1.128638 0.8757476 2.268 249 255 202
1.142577 0.8769241 2.27 250 255 199
1.153008 0.8754115 2.265 250 255 199
1.167533 0.8770067 2.268 251 254 206
1.180045 0.8770722 2.267 249 253 203
1.191003 0.8759929 2.263 250 253 205
1.203548 0.8760915 2.262 250 251 205
1.214506 0.8750451 2.258 247 252 196
1.228177 0.8759541 2.259 248 253 197
1.239154 0.8749425 2.255 245 250 196
1.252903 0.8758897 2.256 250 255 201
1.262219 0.8737493 2.249 247 253 200
1.276604 0.8751248 2.251 247 252 196
1.288767 0.8749662 2.249 248 253 197
1.301536 0.8752176 2.248 246 250 198
1.316685 0.8770491 2.251 247 252 198
1.329558 0.8773457 2.25 248 253 199
1.339492 0.8757141 2.244 245 250 194
1.35363 0.8768367 2.245 248 253 203
1.366623 0.877203 2.244 247 251 201
1.378435 0.8768118 2.241 247 250 194
1.392137 0.8776196 2.241 243 246 190
1.404651 0.8776703 2.239 247 248 202
1.418476 0.8785322 2.239 247 249 199
1.429173 0.8774589 2.234 245 248 194
1.43859 0.8756244 2.227 244 249 195
1.454517 0.8777505 2.23 246 248 198
1.465293 0.8767578 2.225 244 250 182
1.485395 0.8813156 2.234 246 248 196
1.496299 0.8803851 2.229 248 250 200
1.505193 0.8782976 2.221 246 247 191
1.511338 0.8746531 2.209 246 247 191
1.531234 0.8789615 2.217 247 248 192
1.546452 0.8805363 2.218 243 248 185
1.560375 0.8813551 2.217 238 242 182
-1.262897 0.6811395 1.729 215 218 126
-1.262757 0.686384 1.745 209 209 125
-1.263209 0.6920352 1.762 200 200 105
-1.253579 0.6922084 1.765 192 195 77
-1.25314 0.697501 1.781 195 197 93
-1.244906 0.6985049 1.786 78 77 1
-1.238068 0.7003145 1.793 161 134 37
-1.227797 0.700196 1.795 166 140 38
-1.214187 0.6981557 1.792 159 136 33
-1.204044 0.6980914 1.794 146 124 28
-1.201922 0.7027162 1.808 139 114 31
-1.200349 0.7077426 1.823 88 72 18
-1.200609 0.713945 1.841 60 50 13
-1.191665 0.714734 1.845 42 29 6
-1.194248 0.72251 1.867 30 24 7
-1.195351 0.7295194 1.887 29 24 13
-1.191247 0.7334474 1.899 22 18 8
-1.175873 0.7304441 1.893 19 13 6
-1.138485 0.7135887 1.851 89 56 37
-1.120539 0.7087241 1.84 145 119 30
-1.104586 0.7050419 1.832 140 113 28
-1.091165 0.7029227 1.828 136 108 25
-1.081975 0.7035149 1.831 137 109 24
-1.05466 0.6922224 1.803 156 129 38
-1.041618 0.6901714 1.799 172 150 54
-1.02981 0.6889068 1.797 194 177 67
-1.038483 0.701452 1.831 183 168 68
-1.130425 0.7710391 2.014 189 181 76
-1.156941 0.796936 2.083 204 204 124
-1.160157 0.8071408 2.111 199 208 109
-1.162542 0.8169681 2.138 112 103 50
-1.171108 0.8313834 2.177 166 155 89
-1.150524 0.8251885 2.162 182 179 50
-1.149626 0.833131 2.184 184 179 61
-1.15632 0.8468001 2.221 185 180 55
-1.15078 0.8517063 2.235 180 173 50
-1.147151 0.8581467 2.253 184 178 49
-1.141334 0.8630735 2.267 182 178 51
-1.13539 0.8680106 2.281 177 172 49
-1.138174 0.879805 2.313 180 175 50
-1.132843 0.8855202 2.329 172 167 42
-1.132167 0.8950456 2.355 175 169 48
-1.1298 0.9034377 2.378 175 169 50
-1.122038 0.9076599 2.39 173 166 49
-1.11463 0.9122722 2.403 174 162 68
-1.11535 0.9237254 2.434 173 165 60
-1.115747 0.9351841 2.465 172 165 50
-1.116716 0.9474069 2.498 171 165 50
-1.109392 0.9528099 2.513 168 163 54
-1.108463 0.9639081 2.543 163 158 49
-1.10593 0.973875 2.57 168 163 54
-1.09972 0.9808181 2.589 165 160 51
-1.092901 0.9873903 2.607 162 155 46
-1.090038 0.9977576 2.635 156 149 58
-1.080762 1.002453 2.648 175 175 94
-1.074581 1.010184 2.669 174 177 83
-1.067392 1.017167 2.688 162 168 56
-1.063926 1.02794 2.717 185 186 98
-1.060929 1.039477 2.748 189 189 109
-1.053801 1.047237 2.769 185 187 99
-1.052833 1.061432 2.807 187 194 85
-1.051831 1.076011 2.846 184 190 85
-1.055513 1.095887 2.899 185 188 104
-1.053965 1.110853 2.939 189 192 108
-1.04846 1.122045 2.969 186 190 102
-0.3512186 0.6601103 1.749 226 225 126
-0.1694707 0.6542466 1.733 144 141 50
-0.1595175 0.651992 1.727 193 186 83
-0.1506725 0.6542674 1.733 248 247 173
-0.1426587 0.6606956 1.75 200 195 74
-0.1333186 0.6614602 1.752 199 185 81
-0.1236738 0.6607141 1.75 201 190 72
-0.1142462 0.6611003 1.751 192 186 49
-0.1047475 0.6611083 1.751 193 185 56
