-12.176925 54.391994 12.601220 0.000000 0.000000 0.000000 
-11.735261 54.256973 12.201225 0.000000 0.000000 0.000000 
-11.296271 54.088150 11.701225 0.000000 0.000000 0.000000 
-10.860768 53.885548 11.101221 0.000000 0.000000 0.000000 
-10.428524 53.682919 10.501229 0.000000 0.000000 0.000000 
-9.996908 53.547768 10.101222 0.000000 0.000000 0.000000 
-9.561117 53.547619 10.101222 0.000000 0.000000 0.000000 
-9.129048 53.479919 9.901225 0.000000 0.000000 0.000000 
-8.710847 53.209667 9.101223 0.000000 0.000000 0.000000 
-8.287389 53.074409 8.701228 0.000000 0.000000 0.000000 
-7.866107 52.939125 8.301222 0.000000 0.000000 0.000000 
-7.441116 52.871319 8.101224 0.000000 0.000000 0.000000 
-7.026862 52.702221 7.601225 0.000000 0.000000 0.000000 
-6.597898 52.701874 7.601225 0.000000 0.000000 0.000000 
-6.161426 52.769012 7.801222 0.000000 0.000000 0.000000 
-5.744024 52.667347 7.501220 0.000000 0.000000 0.000000 
-5.341160 52.464397 6.901228 0.000000 0.000000 0.000000 
-4.950706 52.193920 6.101226 0.000000 0.000000 0.000000 
-4.535546 52.125938 5.901229 0.000000 0.000000 0.000000 
-4.121483 52.057930 5.701220 0.000000 0.000000 0.000000 
-3.708517 51.989899 5.501222 0.000000 0.000000 0.000000 
-3.307962 51.854343 5.101227 0.000000 0.000000 0.000000 
-2.885880 51.853767 5.101227 0.000000 0.000000 0.000000 
-2.482407 51.751915 4.801225 0.000000 0.000000 0.000000 
-2.067636 51.717548 4.701221 0.000000 0.000000 0.000000 
-1.660163 51.649399 4.501223 0.000000 0.000000 0.000000 
-1.246778 51.614979 4.401218 0.000000 0.000000 0.000000 
-0.833949 51.580551 4.301226 0.000000 0.000000 0.000000 
-0.429235 51.512341 4.101228 0.000000 0.000000 0.000000 
-0.017799 51.477859 4.001224 0.000000 0.000000 0.000000 
0.433571 51.612099 4.401218 0.000000 0.000000 0.000000 
0.878724 51.712563 4.701221 0.000000 0.000000 0.000000 
1.316843 51.779266 4.901218 0.000000 0.000000 0.000000 
1.720388 51.710953 4.701221 0.000000 0.000000 0.000000 
2.150374 51.743862 4.801225 0.000000 0.000000 0.000000 
2.580882 51.776752 4.901218 0.000000 0.000000 0.000000 
3.021643 51.843376 5.101227 0.000000 0.000000 0.000000 
3.483457 51.977459 5.501222 0.000000 0.000000 0.000000 
3.967955 52.179005 6.101226 0.000000 0.000000 0.000000 
4.402995 52.211811 6.201219 0.000000 0.000000 0.000000 
4.849370 52.278355 6.401228 0.000000 0.000000 0.000000 
5.274647 52.277390 6.401228 0.000000 0.000000 0.000000 
5.745305 52.411373 6.801223 0.000000 0.000000 0.000000 
6.229734 52.579079 7.301223 0.000000 0.000000 0.000000 
6.669281 52.611801 7.401227 0.000000 0.000000 0.000000 
7.133676 52.711990 7.701218 0.000000 0.000000 0.000000 
7.549940 52.677223 7.601225 0.000000 0.000000 0.000000 
8.029165 52.811111 8.001220 0.000000 0.000000 0.000000 
8.471609 52.843788 8.101224 0.000000 0.000000 0.000000 
8.994061 53.078876 8.801221 0.000000 0.000000 0.000000 
9.466207 53.178986 9.101223 0.000000 0.000000 0.000000 
9.995122 53.414040 9.801220 0.000000 0.000000 0.000000 
10.457503 53.480389 10.001218 0.000000 0.000000 0.000000 
10.949608 53.614208 10.401224 0.000000 0.000000 0.000000 
11.370851 53.579346 10.301220 0.000000 0.000000 0.000000 
11.702287 53.342083 9.601223 0.000000 0.000000 0.000000 
12.105636 53.273491 9.401225 0.000000 0.000000 0.000000 
12.584955 53.373547 9.701227 0.000000 0.000000 0.000000 
13.081565 53.507332 10.101222 0.000000 0.000000 0.000000 
13.452672 53.371273 9.701227 0.000000 0.000000 0.000000 
13.805365 53.201488 9.201228 0.000000 0.000000 0.000000 
14.155331 53.031704 8.701228 0.000000 0.000000 0.000000 
14.536112 52.929394 8.401226 0.000000 0.000000 0.000000 
14.983403 52.961990 8.501219 0.000000 0.000000 0.000000 
15.500473 53.129498 9.001219 0.000000 0.000000 0.000000 
16.002645 53.263275 9.401225 0.000000 0.000000 0.000000 
16.489120 53.363331 9.701227 0.000000 0.000000 0.000000 
17.013451 53.530834 10.201227 0.000000 0.000000 0.000000 
17.687618 53.968117 11.501228 0.000000 0.000000 0.000000 
18.499466 54.641453 13.501226 0.000000 0.000000 0.000000 
-17.991308 54.519756 14.301228 0.000000 0.000000 0.000000 
-17.491381 53.984371 12.701224 0.000000 0.000000 0.000000 
-17.033413 53.817280 12.201225 0.000000 0.000000 0.000000 
-16.583660 53.717140 11.901223 0.000000 0.000000 0.000000 
-16.142979 53.717430 11.901223 0.000000 0.000000 0.000000 
-15.702292 53.717690 11.901223 0.000000 0.000000 0.000000 
-15.255776 53.617458 11.601221 0.000000 0.000000 0.000000 
-14.809216 53.483711 11.201226 0.000000 0.000000 0.000000 
-14.370412 53.483883 11.201226 0.000000 0.000000 0.000000 
-13.933858 53.550987 11.401223 0.000000 0.000000 0.000000 
-13.491940 53.450634 11.101221 0.000000 0.000000 0.000000 
-13.051647 53.350250 10.801219 0.000000 0.000000 0.000000 
-12.615480 53.517738 11.301219 0.000000 0.000000 0.000000 
-12.176641 53.718678 11.901223 0.000000 0.000000 0.000000 
-11.735697 53.752151 12.001227 0.000000 0.000000 0.000000 
-11.298223 53.517704 11.301219 0.000000 0.000000 0.000000 
-10.864550 53.283230 10.601222 0.000000 0.000000 0.000000 
-10.434678 53.048733 9.901225 0.000000 0.000000 0.000000 
-10.004662 52.914658 9.501218 0.000000 0.000000 0.000000 
-9.575232 52.814045 9.201228 0.000000 0.000000 0.000000 
-9.141858 52.813854 9.201228 0.000000 0.000000 0.000000 
-8.719140 52.646210 8.701228 0.000000 0.000000 0.000000 
-8.294337 52.545509 8.401226 0.000000 0.000000 0.000000 
-7.873843 52.411297 8.001220 0.000000 0.000000 0.000000 
-7.446693 52.377514 7.901227 0.000000 0.000000 0.000000 
-7.029740 52.243248 7.501220 0.000000 0.000000 0.000000 
-6.604506 52.209412 7.401227 0.000000 0.000000 0.000000 
-6.198614 52.008114 6.801223 0.000000 0.000000 0.000000 
-5.783898 51.907257 6.501221 0.000000 0.000000 0.000000 
-5.383722 51.705925 5.901229 0.000000 0.000000 0.000000 
-4.977670 51.571526 5.501222 0.000000 0.000000 0.000000 
-4.564112 51.504078 5.301225 0.000000 0.000000 0.000000 
-4.156767 51.403122 5.001223 0.000000 0.000000 0.000000 
-3.745674 51.335625 4.801225 0.000000 0.000000 0.000000 
-3.346996 51.201134 4.401218 0.000000 0.000000 0.000000 
-2.932715 51.167068 4.301226 0.000000 0.000000 0.000000 
-2.525190 51.099499 4.101228 0.000000 0.000000 0.000000 
-2.118765 51.031910 3.901219 0.000000 0.000000 0.000000 
-1.706698 50.997772 3.801226 0.000000 0.000000 0.000000 
-1.295187 50.963619 3.701221 0.000000 0.000000 0.000000 
-0.876951 50.962921 3.701221 0.000000 0.000000 0.000000 
-0.473844 50.895241 3.501224 0.000000 0.000000 0.000000 
-0.048358 50.927982 3.601228 0.000000 0.000000 0.000000 
0.377654 50.960693 3.701221 0.000000 0.000000 0.000000 
0.829301 51.093826 4.101228 0.000000 0.000000 0.000000 
1.239894 51.059540 4.001224 0.000000 0.000000 0.000000 
1.649925 51.025227 3.901219 0.000000 0.000000 0.000000 
2.068580 51.024387 3.901219 0.000000 0.000000 0.000000 
2.525031 51.157425 4.301226 0.000000 0.000000 0.000000 
2.973909 51.256969 4.601228 0.000000 0.000000 0.000000 
3.424391 51.356480 4.901218 0.000000 0.000000 0.000000 
3.886748 51.489456 5.301225 0.000000 0.000000 0.000000 
4.340716 51.588932 5.601227 0.000000 0.000000 0.000000 
4.785480 51.654915 5.801224 0.000000 0.000000 0.000000 
5.231305 51.720871 6.001222 0.000000 0.000000 0.000000 
5.689546 51.820293 6.301224 0.000000 0.000000 0.000000 
6.161014 51.953163 6.701219 0.000000 0.000000 0.000000 
6.575163 51.918663 6.601226 0.000000 0.000000 0.000000 
7.025240 51.984562 6.801223 0.000000 0.000000 0.000000 
7.439072 51.950027 6.701219 0.000000 0.000000 0.000000 
7.915878 52.082844 7.101225 0.000000 0.000000 0.000000 
8.342912 52.081760 7.101225 0.000000 0.000000 0.000000 
8.889168 52.381870 8.001220 0.000000 0.000000 0.000000 
9.372681 52.514633 8.401226 0.000000 0.000000 0.000000 
9.872128 52.680840 8.901226 0.000000 0.000000 0.000000 
10.289896 52.646240 8.801221 0.000000 0.000000 0.000000 
10.764427 52.745499 9.101223 0.000000 0.000000 0.000000 
11.211359 52.777813 9.201228 0.000000 0.000000 0.000000 
11.599315 52.676277 8.901226 0.000000 0.000000 0.000000 
12.015914 52.641663 8.801221 0.000000 0.000000 0.000000 
12.478197 52.707420 9.001219 0.000000 0.000000 0.000000 
12.988603 52.873554 9.501218 0.000000 0.000000 0.000000 
13.405957 52.838932 9.401225 0.000000 0.000000 0.000000 
13.774057 52.703926 9.001219 0.000000 0.000000 0.000000 
14.139979 52.568920 8.601224 0.000000 0.000000 0.000000 
14.503716 52.433933 8.201229 0.000000 0.000000 0.000000 
14.933428 52.432777 8.201229 0.000000 0.000000 0.000000 
15.397748 52.498535 8.401226 0.000000 0.000000 0.000000 
15.898293 52.631195 8.801221 0.000000 0.000000 0.000000 
16.383137 52.730408 9.101223 0.000000 0.000000 0.000000 
16.869595 52.829628 9.401225 0.000000 0.000000 0.000000 
17.486416 53.163017 10.401224 0.000000 0.000000 0.000000 
18.145969 53.563301 11.601221 0.000000 0.000000 0.000000 
19.039234 54.365013 14.001225 0.000000 0.000000 0.000000 
-18.419691 53.909733 13.801229 0.000000 0.000000 0.000000 
-17.934599 53.544773 12.701224 0.000000 0.000000 0.000000 
-17.465361 53.279419 11.901223 0.000000 0.000000 0.000000 
-17.009533 53.113689 11.401223 0.000000 0.000000 0.000000 
-16.564678 53.047577 11.201226 0.000000 0.000000 0.000000 
-16.128351 53.081081 11.301219 0.000000 0.000000 0.000000 
-15.691475 53.114559 11.401223 0.000000 0.000000 0.000000 
-15.248227 53.048359 11.201226 0.000000 0.000000 0.000000 
-14.804390 52.948902 10.901224 0.000000 0.000000 0.000000 
-14.363575 52.882637 10.701226 0.000000 0.000000 0.000000 
-13.928349 52.949211 10.901224 0.000000 0.000000 0.000000 
-13.485191 52.750019 10.301220 0.000000 0.000000 0.000000 
-13.047040 52.650444 10.001218 0.000000 0.000000 0.000000 
-12.611453 52.650490 10.001218 0.000000 0.000000 0.000000 
-12.176194 52.916248 10.801219 0.000000 0.000000 0.000000 
-11.737974 52.982677 11.001228 0.000000 0.000000 0.000000 
-11.301680 52.849766 10.601222 0.000000 0.000000 0.000000 
-10.869877 52.617176 9.901225 0.000000 0.000000 0.000000 
-10.442920 52.351341 9.101223 0.000000 0.000000 0.000000 
-10.016361 52.185120 8.601224 0.000000 0.000000 0.000000 
-9.589344 52.085312 8.301222 0.000000 0.000000 0.000000 
-9.160243 52.051910 8.201229 0.000000 0.000000 0.000000 
-8.738080 51.918827 7.801222 0.000000 0.000000 0.000000 
-8.320495 51.752499 7.301223 0.000000 0.000000 0.000000 
-7.905630 51.586143 6.801223 0.000000 0.000000 0.000000 
-7.475820 51.619061 6.901228 0.000000 0.000000 0.000000 
-7.055122 51.552292 6.701219 0.000000 0.000000 0.000000 
-6.628544 51.551933 6.701219 0.000000 0.000000 0.000000 
-6.217009 51.418694 6.301224 0.000000 0.000000 0.000000 
-5.807652 51.285419 5.901229 0.000000 0.000000 0.000000 
-5.404779 51.118908 5.401217 0.000000 0.000000 0.000000 
-5.000058 50.985577 5.001223 0.000000 0.000000 0.000000 
-4.582988 50.951878 4.901218 0.000000 0.000000 0.000000 
-4.181816 50.818504 4.501223 0.000000 0.000000 0.000000 
-3.772056 50.751541 4.301226 0.000000 0.000000 0.000000 
-3.386025 50.551693 3.701221 0.000000 0.000000 0.000000 
-2.973618 50.517895 3.601228 0.000000 0.000000 0.000000 
-2.561769 50.484070 3.501224 0.000000 0.000000 0.000000 
-2.150477 50.450222 3.401219 0.000000 0.000000 0.000000 
-1.753229 50.349918 3.101217 0.000000 0.000000 0.000000 
-1.343594 50.316029 3.001224 0.000000 0.000000 0.000000 
-0.919949 50.348530 3.101217 0.000000 0.000000 0.000000 
-0.503336 50.347801 3.101217 0.000000 0.000000 0.000000 
-0.086738 50.347050 3.101217 0.000000 0.000000 0.000000 
0.337941 50.379494 3.201222 0.000000 0.000000 0.000000 
0.771513 50.445114 3.401219 0.000000 0.000000 0.000000 
1.188871 50.444298 3.401219 0.000000 0.000000 0.000000 
1.597297 50.410244 3.301226 0.000000 0.000000 0.000000 
2.023525 50.442593 3.401219 0.000000 0.000000 0.000000 
2.478644 50.574543 3.801226 0.000000 0.000000 0.000000 
2.926185 50.673260 4.101228 0.000000 0.000000 0.000000 
3.355339 50.705547 4.201221 0.000000 0.000000 0.000000 
3.795279 50.771011 4.401218 0.000000 0.000000 0.000000 
4.236288 50.836472 4.601228 0.000000 0.000000 0.000000 
4.689168 50.935104 4.901218 0.000000 0.000000 0.000000 
5.121490 50.967316 5.001223 0.000000 0.000000 0.000000 
5.577039 51.065914 5.301225 0.000000 0.000000 0.000000 
6.045813 51.197693 5.701220 0.000000 0.000000 0.000000 
6.492948 51.263054 5.901229 0.000000 0.000000 0.000000 
6.916814 51.261993 5.901229 0.000000 0.000000 0.000000 
7.377962 51.360519 6.201219 0.000000 0.000000 0.000000 
7.828013 51.425835 6.401228 0.000000 0.000000 0.000000 
8.292098 51.524326 6.701219 0.000000 0.000000 0.000000 
8.771039 51.656010 7.101225 0.000000 0.000000 0.000000 
9.238603 51.754471 7.401227 0.000000 0.000000 0.000000 
9.707773 51.852921 7.701218 0.000000 0.000000 0.000000 
10.136358 51.851768 7.701218 0.000000 0.000000 0.000000 
10.636587 52.016594 8.201229 0.000000 0.000000 0.000000 
11.095692 52.081821 8.401226 0.000000 0.000000 0.000000 
11.496357 52.014259 8.201229 0.000000 0.000000 0.000000 
11.911064 51.979889 8.101224 0.000000 0.000000 0.000000 
12.356044 52.011898 8.201229 0.000000 0.000000 0.000000 
12.864288 52.176670 8.701228 0.000000 0.000000 0.000000 
13.295432 52.175484 8.701228 0.000000 0.000000 0.000000 
13.694095 52.107903 8.501219 0.000000 0.000000 0.000000 
14.091660 52.040337 8.301222 0.000000 0.000000 0.000000 
14.488121 51.972767 8.101224 0.000000 0.000000 0.000000 
14.883479 51.905212 7.901227 0.000000 0.000000 0.000000 
15.329670 51.937202 8.001220 0.000000 0.000000 0.000000 
15.811550 52.035580 8.301222 0.000000 0.000000 0.000000 
16.312893 52.167137 8.701228 0.000000 0.000000 0.000000 
16.816385 52.298691 9.101223 0.000000 0.000000 0.000000 
17.377213 52.529808 9.801220 0.000000 0.000000 0.000000 
17.960480 52.794094 10.601222 0.000000 0.000000 0.000000 
18.718489 53.357014 12.301218 0.000000 0.000000 0.000000 
-18.870081 53.500034 13.901221 0.000000 0.000000 0.000000 
-18.374031 53.072182 12.601220 0.000000 0.000000 0.000000 
-17.913580 52.907864 12.101220 0.000000 0.000000 0.000000 
-17.452534 52.710567 11.501228 0.000000 0.000000 0.000000 
-17.000790 52.579132 11.101221 0.000000 0.000000 0.000000 
-16.556719 52.513554 10.901224 0.000000 0.000000 0.000000 
-16.116209 52.480904 10.801219 0.000000 0.000000 0.000000 
-15.678447 52.481167 10.801219 0.000000 0.000000 0.000000 
-15.236797 52.415501 10.601222 0.000000 0.000000 0.000000 
-14.797898 52.382759 10.501229 0.000000 0.000000 0.000000 
-14.359536 52.349983 10.401224 0.000000 0.000000 0.000000 
-13.920588 52.284222 10.201227 0.000000 0.000000 0.000000 
-13.477589 52.020748 9.401225 0.000000 0.000000 0.000000 
-13.040682 51.856091 8.901226 0.000000 0.000000 0.000000 
-12.608363 51.889084 9.001219 0.000000 0.000000 0.000000 
-12.175788 52.152691 9.801220 0.000000 0.000000 0.000000 
-11.740252 52.218578 10.001218 0.000000 0.000000 0.000000 
-11.306641 52.086750 9.601223 0.000000 0.000000 0.000000 
-10.878296 51.823082 8.801221 0.000000 0.000000 0.000000 
-10.451161 51.658245 8.301222 0.000000 0.000000 0.000000 
-10.025428 51.526329 7.901227 0.000000 0.000000 0.000000 
-9.601870 51.394371 7.501220 0.000000 0.000000 0.000000 
-9.176769 51.328285 7.301223 0.000000 0.000000 0.000000 
-8.759150 51.163330 6.801223 0.000000 0.000000 0.000000 
-8.339447 51.064243 6.501221 0.000000 0.000000 0.000000 
-7.918705 50.998070 6.301224 0.000000 0.000000 0.000000 
-7.496113 50.964817 6.201219 0.000000 0.000000 0.000000 
-7.077287 50.898590 6.001222 0.000000 0.000000 0.000000 
-6.659554 50.832333 5.801224 0.000000 0.000000 0.000000 
-6.239158 50.799004 5.701220 0.000000 0.000000 0.000000 
-5.827374 50.699745 5.401217 0.000000 0.000000 0.000000 
-5.421531 50.567516 5.001223 0.000000 0.000000 0.000000 
-5.027014 50.369377 4.401218 0.000000 0.000000 0.000000 
-4.621232 50.270046 4.101228 0.000000 0.000000 0.000000 
-4.217092 50.170700 3.801226 0.000000 0.000000 0.000000 
-3.814592 50.071316 3.501224 0.000000 0.000000 0.000000 
-3.413734 49.971912 3.201222 0.000000 0.000000 0.000000 
-3.008589 49.905430 3.001224 0.000000 0.000000 0.000000 
-2.585942 49.937752 3.101217 0.000000 0.000000 0.000000 
-2.175710 49.904163 3.001224 0.000000 0.000000 0.000000 
-1.779524 49.804661 2.701222 0.000000 0.000000 0.000000 
-1.370951 49.771030 2.601218 0.000000 0.000000 0.000000 
-0.948366 49.803261 2.701222 0.000000 0.000000 0.000000 
-0.517702 49.868401 2.901220 0.000000 0.000000 0.000000 
-0.109453 49.834694 2.801227 0.000000 0.000000 0.000000 
0.290136 49.768032 2.601218 0.000000 0.000000 0.000000 
0.713734 49.800167 2.701222 0.000000 0.000000 0.000000 
1.129214 49.799339 2.701222 0.000000 0.000000 0.000000 
1.553586 49.831429 2.801227 0.000000 0.000000 0.000000 
1.987667 49.896435 3.001224 0.000000 0.000000 0.000000 
2.441720 50.027294 3.401219 0.000000 0.000000 0.000000 
2.878473 50.092258 3.601228 0.000000 0.000000 0.000000 
3.296291 50.091324 3.601228 0.000000 0.000000 0.000000 
3.724357 50.123306 3.701221 0.000000 0.000000 0.000000 
4.174025 50.221149 4.001224 0.000000 0.000000 0.000000 
4.603676 50.253090 4.101228 0.000000 0.000000 0.000000 
5.044929 50.317951 4.301226 0.000000 0.000000 0.000000 
5.498596 50.415733 4.601228 0.000000 0.000000 0.000000 
5.965491 50.546417 5.001223 0.000000 0.000000 0.000000 
6.375059 50.512424 4.901218 0.000000 0.000000 0.000000 
6.796227 50.511353 4.901218 0.000000 0.000000 0.000000 
7.242245 50.576130 5.101227 0.000000 0.000000 0.000000 
7.727452 50.739677 5.601227 0.000000 0.000000 0.000000 
8.176404 50.804420 5.801224 0.000000 0.000000 0.000000 
8.652921 50.935001 6.201219 0.000000 0.000000 0.000000 
9.118055 51.032646 6.501221 0.000000 0.000000 0.000000 
9.584802 51.130276 6.801223 0.000000 0.000000 0.000000 
10.010956 51.129105 6.801223 0.000000 0.000000 0.000000 
10.465755 51.193783 7.001221 0.000000 0.000000 0.000000 
10.907015 51.225529 7.101225 0.000000 0.000000 0.000000 
11.319037 51.191410 7.001221 0.000000 0.000000 0.000000 
11.730500 51.157303 6.901228 0.000000 0.000000 0.000000 
12.187650 51.221947 7.101225 0.000000 0.000000 0.000000 
12.677234 51.352425 7.501220 0.000000 0.000000 0.000000 
13.137048 51.417057 7.701218 0.000000 0.000000 0.000000 
13.565465 51.415840 7.701218 0.000000 0.000000 0.000000 
13.993861 51.414623 7.701218 0.000000 0.000000 0.000000 
14.422240 51.413406 7.701218 0.000000 0.000000 0.000000 
14.833551 51.379280 7.601225 0.000000 0.000000 0.000000 
15.261620 51.378063 7.601225 0.000000 0.000000 0.000000 
15.759998 51.508514 8.001220 0.000000 0.000000 0.000000 
16.260530 51.638966 8.401226 0.000000 0.000000 0.000000 
16.763206 51.769409 8.801221 0.000000 0.000000 0.000000 
17.249634 51.866947 9.101223 0.000000 0.000000 0.000000 
17.831009 52.129051 9.901225 0.000000 0.000000 0.000000 
18.492439 52.522793 11.101221 0.000000 0.000000 0.000000 
19.333227 53.212734 13.201224 0.000000 0.000000 0.000000 
-19.369291 53.449200 15.101230 0.000000 0.000000 0.000000 
-18.841761 52.828823 13.201224 0.000000 0.000000 0.000000 
-18.359100 52.502499 12.201225 0.000000 0.000000 0.000000 
-17.899704 52.339535 11.701225 0.000000 0.000000 0.000000 
-17.443010 52.176525 11.201226 0.000000 0.000000 0.000000 
-16.992048 52.046177 10.801219 0.000000 0.000000 0.000000 
-16.551517 52.013824 10.701226 0.000000 0.000000 0.000000 
-16.109035 51.948757 10.501229 0.000000 0.000000 0.000000 
-15.674271 51.981709 10.601222 0.000000 0.000000 0.000000 
-15.233134 51.916584 10.401224 0.000000 0.000000 0.000000 
-14.798086 51.949467 10.501229 0.000000 0.000000 0.000000 
-14.354101 51.786247 10.001218 0.000000 0.000000 0.000000 
-13.910573 51.557640 9.301221 0.000000 0.000000 0.000000 
-13.466564 51.165600 8.101224 0.000000 0.000000 0.000000 
-13.033740 51.034966 7.701218 0.000000 0.000000 0.000000 
-12.604022 51.002338 7.601225 0.000000 0.000000 0.000000 
-12.175094 51.165752 8.101224 0.000000 0.000000 0.000000 
-11.744602 51.165745 8.101224 0.000000 0.000000 0.000000 
-11.315617 51.067657 7.801222 0.000000 0.000000 0.000000 
-10.889807 50.904194 7.301223 0.000000 0.000000 0.000000 
-10.464625 50.806061 7.001221 0.000000 0.000000 0.000000 
-10.039759 50.740566 6.801223 0.000000 0.000000 0.000000 
-9.614393 50.707729 6.701219 0.000000 0.000000 0.000000 
-9.195153 50.576820 6.301224 0.000000 0.000000 0.000000 
-8.778089 50.445892 5.901229 0.000000 0.000000 0.000000 
-8.355996 50.412960 5.801224 0.000000 0.000000 0.000000 
-7.934453 50.380005 5.701220 0.000000 0.000000 0.000000 
-7.519350 50.281658 5.401217 0.000000 0.000000 0.000000 
-7.115530 50.085262 4.801225 0.000000 0.000000 0.000000 
-6.701025 50.019547 4.601228 0.000000 0.000000 0.000000 
-6.272582 50.084511 4.801225 0.000000 0.000000 0.000000 
-5.859183 50.018738 4.601228 0.000000 0.000000 0.000000 
-5.455484 49.887577 4.201221 0.000000 0.000000 0.000000 
-5.053967 49.756397 3.801226 0.000000 0.000000 0.000000 
-4.649787 49.657871 3.501224 0.000000 0.000000 0.000000 
-4.247250 49.559315 3.201222 0.000000 0.000000 0.000000 
-3.835579 49.526085 3.101217 0.000000 0.000000 0.000000 
-3.430123 49.460163 2.901220 0.000000 0.000000 0.000000 
-3.019837 49.426888 2.801227 0.000000 0.000000 0.000000 
-2.610108 49.393578 2.701222 0.000000 0.000000 0.000000 
-2.200939 49.360256 2.601218 0.000000 0.000000 0.000000 
-1.805812 49.261562 2.301227 0.000000 0.000000 0.000000 
-1.398303 49.228184 2.201223 0.000000 0.000000 0.000000 
-0.976778 49.260136 2.301227 0.000000 0.000000 0.000000 
-0.547174 49.324730 2.501225 0.000000 0.000000 0.000000 
-0.139988 49.291279 2.401220 0.000000 0.000000 0.000000 
0.258538 49.225151 2.201223 0.000000 0.000000 0.000000 
0.672703 49.224339 2.201223 0.000000 0.000000 0.000000 
1.086848 49.223495 2.201223 0.000000 0.000000 0.000000 
1.518797 49.287971 2.401220 0.000000 0.000000 0.000000 
1.942629 49.319763 2.501225 0.000000 0.000000 0.000000 
2.357528 49.318867 2.501225 0.000000 0.000000 0.000000 
2.782133 49.350605 2.601218 0.000000 0.000000 0.000000 
3.217255 49.414997 2.801227 0.000000 0.000000 0.000000 
3.673979 49.544701 3.201222 0.000000 0.000000 0.000000 
4.122312 49.641720 3.501224 0.000000 0.000000 0.000000 
4.539813 49.640713 3.501224 0.000000 0.000000 0.000000 
4.979456 49.705025 3.701221 0.000000 0.000000 0.000000 
5.442871 49.834641 4.101228 0.000000 0.000000 0.000000 
5.896801 49.931572 4.401218 0.000000 0.000000 0.000000 
6.304758 49.897842 4.301226 0.000000 0.000000 0.000000 
6.712145 49.864086 4.201221 0.000000 0.000000 0.000000 
7.131408 49.862984 4.201221 0.000000 0.000000 0.000000 
7.576064 49.927197 4.401218 0.000000 0.000000 0.000000 
8.021780 49.991398 4.601228 0.000000 0.000000 0.000000 
8.495057 50.120880 5.001223 0.000000 0.000000 0.000000 
8.956956 50.217705 5.301225 0.000000 0.000000 0.000000 
9.420460 50.314507 5.601227 0.000000 0.000000 0.000000 
9.857439 50.345985 5.701220 0.000000 0.000000 0.000000 
10.294934 50.377457 5.801224 0.000000 0.000000 0.000000 
10.703736 50.343601 5.701220 0.000000 0.000000 0.000000 
11.141726 50.375053 5.801224 0.000000 0.000000 0.000000 
11.595385 50.439148 6.001222 0.000000 0.000000 0.000000 
12.050103 50.503235 6.201219 0.000000 0.000000 0.000000 
12.521570 50.599964 6.501221 0.000000 0.000000 0.000000 
12.994640 50.696693 6.801223 0.000000 0.000000 0.000000 
13.453084 50.760761 7.001221 0.000000 0.000000 0.000000 
13.879584 50.759521 7.001221 0.000000 0.000000 0.000000 
14.322838 50.790928 7.101225 0.000000 0.000000 0.000000 
14.766609 50.822334 7.201218 0.000000 0.000000 0.000000 
15.245532 50.919037 7.501220 0.000000 0.000000 0.000000 
15.743643 51.048382 7.901227 0.000000 0.000000 0.000000 
16.243900 51.177727 8.301222 0.000000 0.000000 0.000000 
16.728180 51.274414 8.601224 0.000000 0.000000 0.000000 
17.214067 51.371113 8.901226 0.000000 0.000000 0.000000 
17.738894 51.533089 9.401225 0.000000 0.000000 0.000000 
18.380035 51.890926 10.501229 0.000000 0.000000 0.000000 
19.103956 52.379318 12.001227 0.000000 0.000000 0.000000 
-19.312803 52.582172 13.801229 0.000000 0.000000 0.000000 
-18.825779 52.258583 12.801229 0.000000 0.000000 0.000000 
-18.344172 51.934956 11.801218 0.000000 0.000000 0.000000 
-17.885830 51.773338 11.301219 0.000000 0.000000 0.000000 
-17.430191 51.611691 10.801219 0.000000 0.000000 0.000000 
-16.980286 51.482407 10.401224 0.000000 0.000000 0.000000 
-16.540808 51.450333 10.301220 0.000000 0.000000 0.000000 
-16.101866 51.418217 10.201227 0.000000 0.000000 0.000000 
-15.667886 51.450901 10.301220 0.000000 0.000000 0.000000 
-15.229473 51.418724 10.201227 0.000000 0.000000 0.000000 
-14.793267 51.418938 10.201227 0.000000 0.000000 0.000000 
-14.350065 51.257057 9.701227 0.000000 0.000000 0.000000 
-13.900558 50.835880 8.401226 0.000000 0.000000 0.000000 
-13.458107 50.414665 7.101225 0.000000 0.000000 0.000000 
-13.027382 50.252697 6.601226 0.000000 0.000000 0.000000 
-12.600932 50.252743 6.601226 0.000000 0.000000 0.000000 
-12.174563 50.317581 6.801223 0.000000 0.000000 0.000000 
-11.747801 50.285164 6.701219 0.000000 0.000000 0.000000 
-11.322083 50.220303 6.501221 0.000000 0.000000 0.000000 
-10.898226 50.122997 6.201219 0.000000 0.000000 0.000000 
-10.474956 50.058075 6.001222 0.000000 0.000000 0.000000 
-10.051456 50.025539 5.901229 0.000000 0.000000 0.000000 
-9.630093 49.960552 5.701220 0.000000 0.000000 0.000000 
-9.209819 49.895538 5.501222 0.000000 0.000000 0.000000 
-8.792766 49.798092 5.201220 0.000000 0.000000 0.000000 
-8.367741 49.830254 5.301225 0.000000 0.000000 0.000000 
-7.947526 49.797562 5.201220 0.000000 0.000000 0.000000 
-7.539639 49.635204 4.701221 0.000000 0.000000 0.000000 
-7.137692 49.440418 4.101228 0.000000 0.000000 0.000000 
-6.728548 49.342827 3.801226 0.000000 0.000000 0.000000 
-6.302246 49.407246 4.001224 0.000000 0.000000 0.000000 
-5.890990 49.342003 3.801226 0.000000 0.000000 0.000000 
-5.485133 49.244335 3.501224 0.000000 0.000000 0.000000 
-5.090063 49.081818 3.001224 0.000000 0.000000 0.000000 
-4.688027 48.984100 2.701222 0.000000 0.000000 0.000000 
-4.277404 48.951157 2.601218 0.000000 0.000000 0.000000 
-3.856559 48.983009 2.701222 0.000000 0.000000 0.000000 
-3.446505 48.950016 2.601218 0.000000 0.000000 0.000000 
-3.042938 48.884594 2.401220 0.000000 0.000000 0.000000 
-2.634268 48.851559 2.301227 0.000000 0.000000 0.000000 
-2.226159 48.818489 2.201223 0.000000 0.000000 0.000000 
-1.811864 48.817806 2.201223 0.000000 0.000000 0.000000 
-1.411614 48.752293 2.001225 0.000000 0.000000 0.000000 
-0.997896 48.751560 2.001225 0.000000 0.000000 0.000000 
-0.576639 48.783199 2.101218 0.000000 0.000000 0.000000 
-0.162688 48.782413 2.101218 0.000000 0.000000 0.000000 
0.235047 48.716812 1.901221 0.000000 0.000000 0.000000 
0.640049 48.683582 1.801228 0.000000 0.000000 0.000000 
1.044487 48.650337 1.701223 0.000000 0.000000 0.000000 
1.475106 48.714264 1.901221 0.000000 0.000000 0.000000 
1.888418 48.713379 1.901221 0.000000 0.000000 0.000000 
2.301709 48.712463 1.901221 0.000000 0.000000 0.000000 
2.724708 48.743931 2.001225 0.000000 0.000000 0.000000 
3.168222 48.840168 2.301227 0.000000 0.000000 0.000000 
3.613342 48.936386 2.601218 0.000000 0.000000 0.000000 
4.070608 49.064972 3.001224 0.000000 0.000000 0.000000 
4.465147 48.999172 2.801227 0.000000 0.000000 0.000000 
4.925077 49.127720 3.201222 0.000000 0.000000 0.000000 
5.353093 49.159065 3.301226 0.000000 0.000000 0.000000 
5.804876 49.255180 3.601228 0.000000 0.000000 0.000000 
6.198778 49.189304 3.401219 0.000000 0.000000 0.000000 
6.628076 49.220596 3.501224 0.000000 0.000000 0.000000 
7.033017 49.187092 3.401219 0.000000 0.000000 0.000000 
7.462810 49.218361 3.501224 0.000000 0.000000 0.000000 
7.880137 49.217213 3.501224 0.000000 0.000000 0.000000 
8.363704 49.378010 4.001224 0.000000 0.000000 0.000000 
8.795861 49.409237 4.101228 0.000000 0.000000 0.000000 
9.269917 49.537609 4.501223 0.000000 0.000000 0.000000 
9.661734 49.471638 4.301226 0.000000 0.000000 0.000000 
10.081107 49.470432 4.301226 0.000000 0.000000 0.000000 
10.500463 49.469234 4.301226 0.000000 0.000000 0.000000 
10.979296 49.597546 4.701221 0.000000 0.000000 0.000000 
11.445131 49.693474 5.001223 0.000000 0.000000 0.000000 
11.912567 49.789391 5.301225 0.000000 0.000000 0.000000 
12.381603 49.885300 5.601227 0.000000 0.000000 0.000000 
12.868204 50.013569 6.001222 0.000000 0.000000 0.000000 
13.356944 50.141838 6.401228 0.000000 0.000000 0.000000 
13.831328 50.237717 6.701219 0.000000 0.000000 0.000000 
14.307317 50.333588 7.001221 0.000000 0.000000 0.000000 
14.733779 50.332321 7.001221 0.000000 0.000000 0.000000 
15.229478 50.460564 7.401227 0.000000 0.000000 0.000000 
15.727317 50.588802 7.801222 0.000000 0.000000 0.000000 
16.263016 50.781784 8.401226 0.000000 0.000000 0.000000 
16.711311 50.812885 8.501219 0.000000 0.000000 0.000000 
17.160130 50.843994 8.601224 0.000000 0.000000 0.000000 
17.684143 51.004597 9.101223 0.000000 0.000000 0.000000 
18.305536 51.327057 10.101222 0.000000 0.000000 0.000000 
19.028378 51.811375 11.601221 0.000000 0.000000 0.000000 
19.837238 52.425156 13.501226 0.000000 0.000000 0.000000 
-19.796473 52.396503 14.601218 0.000000 0.000000 0.000000 
-19.282619 51.914959 13.101219 0.000000 0.000000 0.000000 
-18.801577 51.626209 12.201225 0.000000 0.000000 0.000000 
-18.336929 51.433830 11.601221 0.000000 0.000000 0.000000 
-17.879099 51.273556 11.101221 0.000000 0.000000 0.000000 
-17.427271 51.145401 10.701226 0.000000 0.000000 0.000000 
-16.974579 50.985077 10.201227 0.000000 0.000000 0.000000 
-16.541124 51.017536 10.301220 0.000000 0.000000 0.000000 
-16.099667 50.953564 10.101222 0.000000 0.000000 0.000000 
-15.663714 50.953831 10.101222 0.000000 0.000000 0.000000 
-15.221931 50.857655 9.801220 0.000000 0.000000 0.000000 
-14.785110 50.825729 9.701227 0.000000 0.000000 0.000000 
-14.340437 50.600918 9.001219 0.000000 0.000000 0.000000 
-13.891672 50.151096 7.601225 0.000000 0.000000 0.000000 
-13.451360 49.733379 6.301224 0.000000 0.000000 0.000000 
-13.021607 49.508480 5.601227 0.000000 0.000000 0.000000 
-12.598154 49.540665 5.701220 0.000000 0.000000 0.000000 
-12.174034 49.476406 5.501222 0.000000 0.000000 0.000000 
-11.750770 49.444248 5.401217 0.000000 0.000000 0.000000 
-11.329555 49.315647 5.001223 0.000000 0.000000 0.000000 
-10.908192 49.283436 4.901218 0.000000 0.000000 0.000000 
-10.488420 49.219048 4.701221 0.000000 0.000000 0.000000 
-10.067103 49.218918 4.701221 0.000000 0.000000 0.000000 
-9.644204 49.250896 4.801225 0.000000 0.000000 0.000000 
-9.226343 49.186420 4.601228 0.000000 0.000000 0.000000 
-8.809573 49.121918 4.401218 0.000000 0.000000 0.000000 
-8.391493 49.089527 4.301226 0.000000 0.000000 0.000000 
-7.973963 49.057106 4.201221 0.000000 0.000000 0.000000 
-7.559928 48.992512 4.001224 0.000000 0.000000 0.000000 
-7.153419 48.863613 3.601228 0.000000 0.000000 0.000000 
-6.742117 48.798958 3.401219 0.000000 0.000000 0.000000 
-6.331909 48.734283 3.201222 0.000000 0.000000 0.000000 
-5.914734 48.733864 3.201222 0.000000 0.000000 0.000000 
-5.506176 48.669128 3.001224 0.000000 0.000000 0.000000 
-5.107864 48.540089 2.601218 0.000000 0.000000 0.000000 
-4.716577 48.378895 2.101218 0.000000 0.000000 0.000000 
-4.302438 48.378357 2.101218 0.000000 0.000000 0.000000 
-3.877535 48.442074 2.301227 0.000000 0.000000 0.000000 
-3.462881 48.441486 2.301227 0.000000 0.000000 0.000000 
-3.071963 48.312321 1.901221 0.000000 0.000000 0.000000 
-2.670827 48.247406 1.701223 0.000000 0.000000 0.000000 
-2.264320 48.214603 1.601219 0.000000 0.000000 0.000000 
-1.844884 48.246052 1.701223 0.000000 0.000000 0.000000 
-1.445968 48.181065 1.501226 0.000000 0.000000 0.000000 
-1.040869 48.148182 1.401221 0.000000 0.000000 0.000000 
-0.636330 48.115288 1.301228 0.000000 0.000000 0.000000 
-0.208866 48.178761 1.501226 0.000000 0.000000 0.000000 
0.203466 48.177959 1.501226 0.000000 0.000000 0.000000 
0.615775 48.177120 1.501226 0.000000 0.000000 0.000000 
1.019422 48.144131 1.401221 0.000000 0.000000 0.000000 
1.431420 48.143246 1.401221 0.000000 0.000000 0.000000 
1.834212 48.110218 1.301228 0.000000 0.000000 0.000000 
2.245895 48.109291 1.301228 0.000000 0.000000 0.000000 
2.657559 48.108353 1.301228 0.000000 0.000000 0.000000 
3.109197 48.235901 1.701223 0.000000 0.000000 0.000000 
3.542439 48.299171 1.901221 0.000000 0.000000 0.000000 
3.987288 48.394550 2.201223 0.000000 0.000000 0.000000 
4.390488 48.361393 2.101218 0.000000 0.000000 0.000000 
4.837456 48.456730 2.401220 0.000000 0.000000 0.000000 
5.251964 48.455673 2.401220 0.000000 0.000000 0.000000 
5.666448 48.454590 2.401220 0.000000 0.000000 0.000000 
6.092804 48.485626 2.501225 0.000000 0.000000 0.000000 
6.531847 48.548759 2.701222 0.000000 0.000000 0.000000 
6.947068 48.547630 2.701222 0.000000 0.000000 0.000000 
7.362271 48.546494 2.701222 0.000000 0.000000 0.000000 
7.751481 48.481091 2.501225 0.000000 0.000000 0.000000 
8.192595 48.544170 2.701222 0.000000 0.000000 0.000000 
8.594195 48.510872 2.601218 0.000000 0.000000 0.000000 
9.036613 48.573925 2.801227 0.000000 0.000000 0.000000 
9.451962 48.572723 2.801227 0.000000 0.000000 0.000000 
9.881617 48.603622 2.901220 0.000000 0.000000 0.000000 
10.341007 48.698753 3.201222 0.000000 0.000000 0.000000 
10.861508 48.922325 3.901219 0.000000 0.000000 0.000000 
11.370630 49.113770 4.501223 0.000000 0.000000 0.000000 
11.852140 49.240971 4.901218 0.000000 0.000000 0.000000 
12.273026 49.239708 4.901218 0.000000 0.000000 0.000000 
12.741779 49.334778 5.201220 0.000000 0.000000 0.000000 
13.212129 49.429836 5.501222 0.000000 0.000000 0.000000 
13.733592 49.621220 6.101226 0.000000 0.000000 0.000000 
14.275056 49.844704 6.801223 0.000000 0.000000 0.000000 
14.735061 49.907623 7.001221 0.000000 0.000000 0.000000 
15.213444 50.002651 7.301223 0.000000 0.000000 0.000000 
15.658261 50.033466 7.401227 0.000000 0.000000 0.000000 
16.192877 50.224796 8.001220 0.000000 0.000000 0.000000 
16.676342 50.319813 8.301222 0.000000 0.000000 0.000000 
17.161411 50.414829 8.601224 0.000000 0.000000 0.000000 
17.666756 50.541954 9.001219 0.000000 0.000000 0.000000 
18.250000 50.797478 9.801220 0.000000 0.000000 0.000000 
18.933611 51.213512 11.101221 0.000000 0.000000 0.000000 
19.702169 51.757935 12.801229 0.000000 0.000000 0.000000 
-19.750458 51.633404 13.601219 0.000000 0.000000 0.000000 
-19.252439 51.251503 12.401222 0.000000 0.000000 0.000000 
-18.789717 51.092651 11.901223 0.000000 0.000000 0.000000 
-18.333534 50.965641 11.501228 0.000000 0.000000 0.000000 
-17.879515 50.838593 11.101221 0.000000 0.000000 0.000000 
-17.421057 50.647770 10.501229 0.000000 0.000000 0.000000 
-16.971901 50.520657 10.101222 0.000000 0.000000 0.000000 
-16.533176 50.489124 10.001218 0.000000 0.000000 0.000000 
-16.092503 50.425694 9.801220 0.000000 0.000000 0.000000 
-15.648481 50.298481 9.401225 0.000000 0.000000 0.000000 
-15.206625 50.171234 9.001219 0.000000 0.000000 0.000000 
-14.768605 50.075836 8.701228 0.000000 0.000000 0.000000 
-14.328012 49.884789 8.101224 0.000000 0.000000 0.000000 
-13.881658 49.438725 6.701219 0.000000 0.000000 0.000000 
-13.446323 49.120132 5.701220 0.000000 0.000000 0.000000 
-13.018753 48.928982 5.101227 0.000000 0.000000 0.000000 
-12.596314 48.929028 5.101227 0.000000 0.000000 0.000000 
-12.173710 48.801563 4.701221 0.000000 0.000000 0.000000 
-11.753047 48.705936 4.401218 0.000000 0.000000 0.000000 
-11.335520 48.514668 3.801226 0.000000 0.000000 0.000000 
-10.917385 48.482719 3.701221 0.000000 0.000000 0.000000 
-10.500839 48.418877 3.501224 0.000000 0.000000 0.000000 
-10.084067 48.386871 3.401219 0.000000 0.000000 0.000000 
-9.664666 48.418583 3.501224 0.000000 0.000000 0.000000 
-9.242867 48.482124 3.701221 0.000000 0.000000 0.000000 
-8.824249 48.481903 3.701221 0.000000 0.000000 0.000000 
-8.410441 48.417908 3.501224 0.000000 0.000000 0.000000 
-7.997727 48.353882 3.301226 0.000000 0.000000 0.000000 
-7.577271 48.385437 3.401219 0.000000 0.000000 0.000000 
-7.165930 48.321346 3.201222 0.000000 0.000000 0.000000 
-6.759171 48.225365 2.901220 0.000000 0.000000 0.000000 
-6.354051 48.129356 2.601218 0.000000 0.000000 0.000000 
-5.938478 48.128925 2.601218 0.000000 0.000000 0.000000 
-5.531519 48.064728 2.401220 0.000000 0.000000 0.000000 
-5.134808 47.936764 2.001225 0.000000 0.000000 0.000000 
-4.740280 47.808777 1.601219 0.000000 0.000000 0.000000 
-4.332585 47.776371 1.501226 0.000000 0.000000 0.000000 
-3.903896 47.871410 1.801228 0.000000 0.000000 0.000000 
-3.496231 47.838940 1.701223 0.000000 0.000000 0.000000 
-3.100985 47.742718 1.401221 0.000000 0.000000 0.000000 
-2.694978 47.710209 1.301228 0.000000 0.000000 0.000000 
-2.289532 47.677666 1.201224 0.000000 0.000000 0.000000 
-1.871154 47.708832 1.301228 0.000000 0.000000 0.000000 
-1.473299 47.644379 1.101219 0.000000 0.000000 0.000000 
-1.061974 47.643627 1.101219 0.000000 0.000000 0.000000 
-0.650667 47.642857 1.101219 0.000000 0.000000 0.000000 
-0.239380 47.642059 1.101219 0.000000 0.000000 0.000000 
0.171888 47.641235 1.101219 0.000000 0.000000 0.000000 
0.583137 47.640396 1.101219 0.000000 0.000000 0.000000 
0.985722 47.607666 1.001226 0.000000 0.000000 0.000000 
1.405571 47.638630 1.101219 0.000000 0.000000 0.000000 
1.825941 47.669582 1.201224 0.000000 0.000000 0.000000 
2.237376 47.668652 1.201224 0.000000 0.000000 0.000000 
2.648790 47.667698 1.201224 0.000000 0.000000 0.000000 
3.080180 47.730438 1.401221 0.000000 0.000000 0.000000 
3.492086 47.729443 1.401221 0.000000 0.000000 0.000000 
3.925056 47.792137 1.601219 0.000000 0.000000 0.000000 
4.294207 47.663673 1.201224 0.000000 0.000000 0.000000 
4.727670 47.726337 1.401221 0.000000 0.000000 0.000000 
5.116774 47.661556 1.201224 0.000000 0.000000 0.000000 
5.539648 47.692329 1.301228 0.000000 0.000000 0.000000 
5.963037 47.723076 1.401221 0.000000 0.000000 0.000000 
6.399115 47.785660 1.601219 0.000000 0.000000 0.000000 
6.823812 47.816380 1.701223 0.000000 0.000000 0.000000 
7.210892 47.751526 1.501226 0.000000 0.000000 0.000000 
7.609845 47.718510 1.401221 0.000000 0.000000 0.000000 
8.034739 47.749187 1.501226 0.000000 0.000000 0.000000 
8.433100 47.716148 1.401221 0.000000 0.000000 0.000000 
8.886073 47.810497 1.701223 0.000000 0.000000 0.000000 
9.340650 47.904831 2.001225 0.000000 0.000000 0.000000 
9.825498 48.062843 2.501225 0.000000 0.000000 0.000000 
10.283813 48.157143 2.801227 0.000000 0.000000 0.000000 
10.788365 48.346966 3.401219 0.000000 0.000000 0.000000 
11.296145 48.536770 4.001224 0.000000 0.000000 0.000000 
11.791731 48.694721 4.501223 0.000000 0.000000 0.000000 
12.227232 48.725281 4.601228 0.000000 0.000000 0.000000 
12.647294 48.723995 4.601228 0.000000 0.000000 0.000000 
13.083555 48.754536 4.701221 0.000000 0.000000 0.000000 
13.635867 49.007969 5.501222 0.000000 0.000000 0.000000 
14.192488 49.261372 6.301224 0.000000 0.000000 0.000000 
14.685231 49.387409 6.701219 0.000000 0.000000 0.000000 
15.180122 49.513443 7.101225 0.000000 0.000000 0.000000 
15.641984 49.575798 7.301223 0.000000 0.000000 0.000000 
16.140617 49.701813 7.701218 0.000000 0.000000 0.000000 
16.623276 49.796001 8.001220 0.000000 0.000000 0.000000 
17.107531 49.890182 8.301222 0.000000 0.000000 0.000000 
17.649397 50.079861 8.901226 0.000000 0.000000 0.000000 
18.251314 50.365032 9.801220 0.000000 0.000000 0.000000 
18.896507 50.713863 10.901224 0.000000 0.000000 0.000000 
19.625559 51.190002 12.401222 0.000000 0.000000 0.000000 
20.461477 51.825287 14.401220 0.000000 0.000000 0.000000 
-20.260490 51.601871 14.901220 0.000000 0.000000 0.000000 
-19.723070 51.002060 13.001226 0.000000 0.000000 0.000000 
-19.244186 50.749786 12.201225 0.000000 0.000000 0.000000 
-18.786085 50.623890 11.801218 0.000000 0.000000 0.000000 
-18.330145 50.497959 11.401223 0.000000 0.000000 0.000000 
-17.876364 50.372002 11.001228 0.000000 0.000000 0.000000 
-17.421444 50.214401 10.501229 0.000000 0.000000 0.000000 
-16.972256 50.088367 10.101222 0.000000 0.000000 0.000000 
-16.527988 49.993900 9.801220 0.000000 0.000000 0.000000 
-16.080372 49.836197 9.301221 0.000000 0.000000 0.000000 
-15.633249 49.646870 8.701228 0.000000 0.000000 0.000000 
-15.193261 49.520702 8.301222 0.000000 0.000000 0.000000 
-14.755440 49.394505 7.901227 0.000000 0.000000 0.000000 
-14.312791 49.110264 7.001221 0.000000 0.000000 0.000000 
-13.871644 48.731186 5.801224 0.000000 0.000000 0.000000 
-13.441288 48.510082 5.101227 0.000000 0.000000 0.000000 
-13.015900 48.352154 4.601228 0.000000 0.000000 0.000000 
-12.594788 48.352207 4.601228 0.000000 0.000000 0.000000 
-12.173469 48.194210 4.101228 0.000000 0.000000 0.000000 
-11.755095 48.004581 3.501224 0.000000 0.000000 0.000000 
-11.339478 47.846527 3.001224 0.000000 0.000000 0.000000 
-10.925031 47.751648 2.701222 0.000000 0.000000 0.000000 
-10.511170 47.688339 2.501225 0.000000 0.000000 0.000000 
-10.099715 47.593395 2.201223 0.000000 0.000000 0.000000 
-9.685129 47.593231 2.201223 0.000000 0.000000 0.000000 
-9.266829 47.656242 2.401220 0.000000 0.000000 0.000000 
-8.847448 47.719223 2.601218 0.000000 0.000000 0.000000 
-8.436598 47.655766 2.401220 0.000000 0.000000 0.000000 
-8.024165 47.623875 2.301227 0.000000 0.000000 0.000000 
-7.603448 47.686764 2.501225 0.000000 0.000000 0.000000 
-7.188087 47.686420 2.501225 0.000000 0.000000 0.000000 
-6.779711 47.622845 2.301227 0.000000 0.000000 0.000000 
-6.376192 47.527634 2.001225 0.000000 0.000000 0.000000 
-5.962218 47.527199 2.001225 0.000000 0.000000 0.000000 
-5.552558 47.495140 1.901221 0.000000 0.000000 0.000000 
-5.152602 47.399849 1.601219 0.000000 0.000000 0.000000 
-4.749441 47.336136 1.401221 0.000000 0.000000 0.000000 
-4.347379 47.272388 1.201224 0.000000 0.000000 0.000000 
-3.930252 47.303413 1.301228 0.000000 0.000000 0.000000 
-3.523917 47.271214 1.201224 0.000000 0.000000 0.000000 
-3.118141 47.238983 1.101219 0.000000 0.000000 0.000000 
-2.706720 47.238335 1.101219 0.000000 0.000000 0.000000 
-2.308264 47.174461 0.901222 0.000000 0.000000 0.000000 
-1.897420 47.173752 0.901222 0.000000 0.000000 0.000000 
-1.493609 47.141426 0.801229 0.000000 0.000000 0.000000 
-1.083071 47.140675 0.801229 0.000000 0.000000 0.000000 
-0.672555 47.139889 0.801229 0.000000 0.000000 0.000000 
-0.269888 47.107491 0.701224 0.000000 0.000000 0.000000 
0.148421 47.138252 0.801229 0.000000 0.000000 0.000000 
0.542132 47.074211 0.601220 0.000000 0.000000 0.000000 
0.952026 47.073338 0.601220 0.000000 0.000000 0.000000 
1.361898 47.072433 0.601220 0.000000 0.000000 0.000000 
1.790124 47.134705 0.801229 0.000000 0.000000 0.000000 
2.181577 47.070572 0.601220 0.000000 0.000000 0.000000 
2.591384 47.069611 0.601220 0.000000 0.000000 0.000000 
3.001166 47.068619 0.601220 0.000000 0.000000 0.000000 
3.400653 47.036030 0.501227 0.000000 0.000000 0.000000 
3.810116 47.035007 0.501227 0.000000 0.000000 0.000000 
4.187114 46.939201 0.201225 0.000000 0.000000 0.000000 
4.595717 46.938141 0.201225 0.000000 0.000000 0.000000 
4.981581 46.873898 0.001227 0.000000 0.000000 0.000000 
5.377964 46.841217 -0.098777 0.000000 0.000000 0.000000 
5.809474 46.903271 0.101220 0.000000 0.000000 0.000000 
6.254215 46.996899 0.401222 0.000000 0.000000 0.000000 
6.675676 47.027344 0.501227 0.000000 0.000000 0.000000 
7.072227 46.994598 0.401222 0.000000 0.000000 0.000000 
7.494178 47.025009 0.501227 0.000000 0.000000 0.000000 
7.916645 47.055405 0.601220 0.000000 0.000000 0.000000 
8.353154 47.117371 0.801229 0.000000 0.000000 0.000000 
8.776925 47.147732 0.901222 0.000000 0.000000 0.000000 
9.257479 47.304394 1.401221 0.000000 0.000000 0.000000 
9.726377 47.429474 1.801228 0.000000 0.000000 0.000000 
10.212028 47.586105 2.301227 0.000000 0.000000 0.000000 
10.700357 47.742718 2.801227 0.000000 0.000000 0.000000 
11.221675 47.962467 3.501224 0.000000 0.000000 0.000000 
11.762178 48.213772 4.301226 0.000000 0.000000 0.000000 
12.212841 48.275616 4.501223 0.000000 0.000000 0.000000 
12.632631 48.274300 4.501223 0.000000 0.000000 0.000000 
13.036164 48.241409 4.401218 0.000000 0.000000 0.000000 
13.538157 48.397942 4.901218 0.000000 0.000000 0.000000 
14.059611 48.586037 5.501222 0.000000 0.000000 0.000000 
14.584291 48.774120 6.101226 0.000000 0.000000 0.000000 
15.077563 48.899052 6.501221 0.000000 0.000000 0.000000 
15.555384 48.992409 6.801223 0.000000 0.000000 0.000000 
16.070530 49.148895 7.301223 0.000000 0.000000 0.000000 
16.570229 49.273804 7.701218 0.000000 0.000000 0.000000 
17.090471 49.430290 8.201229 0.000000 0.000000 0.000000 
17.632067 49.618313 8.801221 0.000000 0.000000 0.000000 
18.214773 49.869469 9.601223 0.000000 0.000000 0.000000 
18.801792 50.120621 10.401224 0.000000 0.000000 0.000000 
19.490540 50.529568 11.701225 0.000000 0.000000 0.000000 
20.285061 51.096298 13.501226 0.000000 0.000000 0.000000 
-20.206871 50.811974 13.801229 0.000000 0.000000 0.000000 
-19.714312 50.499245 12.801229 0.000000 0.000000 0.000000 
-19.231550 50.217812 11.901223 0.000000 0.000000 0.000000 
-18.782459 50.155647 11.701225 0.000000 0.000000 0.000000 
-18.322916 49.999474 11.201226 0.000000 0.000000 0.000000 
-17.869644 49.874588 10.801219 0.000000 0.000000 0.000000 
-17.408638 49.655666 10.101222 0.000000 0.000000 0.000000 
-16.954449 49.468056 9.501218 0.000000 0.000000 0.000000 
-16.503510 49.280407 8.901226 0.000000 0.000000 0.000000 
-16.058302 49.124058 8.401226 0.000000 0.000000 0.000000 
-15.618017 48.998997 8.001220 0.000000 0.000000 0.000000 
-15.181839 48.905247 7.701218 0.000000 0.000000 0.000000 
-14.740603 48.686134 7.001221 0.000000 0.000000 0.000000 
-14.300366 48.404312 6.101226 0.000000 0.000000 0.000000 
-13.865012 48.122459 5.201220 0.000000 0.000000 0.000000 
-13.438821 47.997246 4.801225 0.000000 0.000000 0.000000 
-13.015383 47.903332 4.501223 0.000000 0.000000 0.000000 
-12.593260 47.778049 4.101228 0.000000 0.000000 0.000000 
-12.173185 47.558731 3.401219 0.000000 0.000000 0.000000 
-11.756911 47.339390 2.701222 0.000000 0.000000 0.000000 
-11.341930 47.276684 2.501225 0.000000 0.000000 0.000000 
-10.929584 47.151272 2.101218 0.000000 0.000000 0.000000 
-10.517322 47.088505 1.901221 0.000000 0.000000 0.000000 
-10.110098 46.931702 1.401221 0.000000 0.000000 0.000000 
-9.697654 46.931534 1.401221 0.000000 0.000000 0.000000 
-9.285213 46.931343 1.401221 0.000000 0.000000 0.000000 
-8.868517 46.993782 1.601219 0.000000 0.000000 0.000000 
-8.460351 46.930862 1.401221 0.000000 0.000000 0.000000 
-8.050604 46.899242 1.301228 0.000000 0.000000 0.000000 
-7.638462 46.898926 1.301228 0.000000 0.000000 0.000000 
-7.226329 46.898575 1.301228 0.000000 0.000000 0.000000 
-6.817694 46.866867 1.201224 0.000000 0.000000 0.000000 
-6.413372 46.803799 1.001226 0.000000 0.000000 0.000000 
-5.998052 46.834694 1.101219 0.000000 0.000000 0.000000 
-5.586504 46.834229 1.101219 0.000000 0.000000 0.000000 
-5.184118 46.771076 0.901222 0.000000 0.000000 0.000000 
-4.773136 46.770554 0.901222 0.000000 0.000000 0.000000 
-4.367288 46.738674 0.801229 0.000000 0.000000 0.000000 
-3.951218 46.769424 0.901222 0.000000 0.000000 0.000000 
-3.545941 46.737499 0.801229 0.000000 0.000000 0.000000 
-3.141223 46.705532 0.701224 0.000000 0.000000 0.000000 
-2.730860 46.704868 0.701224 0.000000 0.000000 0.000000 
-2.320515 46.704185 0.701224 0.000000 0.000000 0.000000 
-1.923680 46.640812 0.501227 0.000000 0.000000 0.000000 
-1.520929 46.608753 0.401222 0.000000 0.000000 0.000000 
-1.118742 46.576660 0.301217 0.000000 0.000000 0.000000 
-0.701996 46.607197 0.401222 0.000000 0.000000 0.000000 
-0.300390 46.575062 0.301217 0.000000 0.000000 0.000000 
0.100653 46.542896 0.201225 0.000000 0.000000 0.000000 
0.492760 46.479393 0.001227 0.000000 0.000000 0.000000 
0.901050 46.478508 0.001227 0.000000 0.000000 0.000000 
1.300400 46.446274 -0.098777 0.000000 0.000000 0.000000 
1.717561 46.476673 0.001227 0.000000 0.000000 0.000000 
2.125786 46.475723 0.001227 0.000000 0.000000 0.000000 
2.514523 46.412106 -0.198782 0.000000 0.000000 0.000000 
2.912154 46.379791 -0.298775 0.000000 0.000000 0.000000 
3.298947 46.316139 -0.498772 0.000000 0.000000 0.000000 
3.684632 46.252472 -0.698782 0.000000 0.000000 0.000000 
4.090836 46.251423 -0.698782 0.000000 0.000000 0.000000 
4.485931 46.219044 -0.798774 0.000000 0.000000 0.000000 
4.891815 46.217960 -0.798774 0.000000 0.000000 0.000000 
5.274416 46.154224 -0.998772 0.000000 0.000000 0.000000 
5.691605 46.184418 -0.898779 0.000000 0.000000 0.000000 
